9.80715 1.75313 1.75313 2 2 3
9.81711 1.75403 1.75403 2 2 3
9.82707 1.75492 1.75492 2 2 3
9.83703 1.75581 1.75581 2 2 3
9.84699 1.7567 1.7567 2 2 3
9.85695 1.75759 1.75759 2 2 3
9.86691 1.75849 1.75849 2 2 3
9.87687 1.75938 1.75938 2 2 3
9.88683 1.76027 1.76027 2 2 3
9.89679 1.76115 1.76115 2 2 3
9.90675 1.76204 1.76204 2 2 3
9.91671 1.76293 1.76293 2 2 3
9.92667 1.76382 1.76382 2 2 3
9.93663 1.76471 1.76471 2 2 3
9.94659 1.76559 1.76559 2 2 3
9.95655 1.76648 1.76648 2 2 3
9.96651 1.76737 1.76737 2 2 3
9.97647 1.76825 1.76825 2 2 3
9.98644 1.76914 1.76914 2 2 3
9.9964 1.77002 1.77002 2 2 3
10.0064 1.77091 1.77091 2 2 3
4.04714 0.11 0.11 2 3 3
4.04914 0.11005 0.11005 2 3 3
4.05114 0.110101 0.110101 2 3 3
4.05513 0.110201 0.110201 2 3 3
4.06311 0.110402 0.110402 2 3 3
4.0731 0.110653 0.110653 2 3 3
4.08308 0.110903 0.110903 2 3 3
4.09306 0.111153 0.111153 2 3 3
4.10304 0.111402 0.111402 2 3 3
4.11302 0.11165 0.11165 2 3 3
4.12301 0.111898 0.111898 2 3 3
4.13299 0.112146 0.112146 2 3 3
4.14297 0.112393 0.112393 2 3 3
4.15296 0.112639 0.112639 2 3 3
4.16294 0.112885 0.112885 2 3 3
4.17292 0.11313 0.11313 2 3 3
4.1829 0.113375 0.113375 2 3 3
4.19289 0.113619 0.113619 2 3 3
4.20287 0.113863 0.113863 2 3 3
4.21285 0.114106 0.114106 2 3 3
4.22284 0.114349 0.114349 2 3 3
4.23282 0.114591 0.114591 2 3 3
4.24281 0.114833 0.114833 2 3 3
4.25279 0.115075 0.115075 2 3 3
4.26277 0.115315 0.115315 2 3 3
4.27276 0.115556 0.115556 2 3 3
4.28274 0.115796 0.115796 2 3 3
4.29273 0.116035 0.116035 2 3 3
4.30271 0.116274 0.116274 2 3 3
4.3127 0.116512 0.116512 2 3 3
4.32268 0.11675 0.11675 2 3 3
4.33267 0.116988 0.116988 2 3 3
4.34265 0.117225 0.117225 2 3 3
4.35264 0.117461 0.117461 2 3 3
4.36262 0.117697 0.117697 2 3 3
4.37261 0.117933 0.117933 2 3 3
4.38259 0.118168 0.118168 2 3 3
4.39258 0.118403 0.118403 2 3 3
4.40256 0.118637 0.118637 2 3 3
4.41255 0.118871 0.118871 2 3 3
4.42253 0.119105 0.119105 2 3 3
4.43252 0.119338 0.119338 2 3 3
4.44251 0.11957 0.11957 2 3 3
4.45249 0.119802 0.119802 2 3 3
4.46248 0.120034 0.120034 2 3 3
4.47246 0.120265 0.120265 2 3 3
4.48245 0.120496 0.120496 2 3 3
4.49244 0.120726 0.120726 2 3 3
4.50242 0.120956 0.120956 2 3 3
4.51241 0.121186 0.121186 2 3 3
4.5224 0.121415 0.121415 2 3 3
4.53238 0.121644 0.121644 2 3 3
4.54237 0.121872 0.121872 2 3 3
4.55236 0.1221 0.1221 2 3 3
4.56234 0.122327 0.122327 2 3 3
4.57233 0.122554 0.122554 2 3 3
4.58232 0.122781 0.122781 2 3 3
4.5923 0.123007 0.123007 2 3 3
4.60229 0.123233 0.123233 2 3 3
4.61228 0.123458 0.123458 2 3 3
4.62227 0.123683 0.123683 2 3 3
4.63225 0.123908 0.123908 2 3 3
4.64224 0.124132 0.124132 2 3 3
4.65223 0.124356 0.124356 2 3 3
4.66222 0.124579 0.124579 2 3 3
4.6722 0.124803 0.124803 2 3 3
4.68219 0.125025 0.125025 2 3 3
4.69218 0.125248 0.125248 2 3 3
4.70217 0.125469 0.125469 2 3 3
4.71216 0.125691 0.125691 2 3 3
4.72214 0.125912 0.125912 2 3 3
4.73213 0.126133 0.126133 2 3 3
4.74212 0.126353 0.126353 2 3 3
4.75211 0.126573 0.126573 2 3 3
4.7621 0.126793 0.126793 2 3 3
4.77209 0.127012 0.127012 2 3 3
4.78208 0.127231 0.127231 2 3 3
4.79206 0.12745 0.12745 2 3 3
4.80205 0.127668 0.127668 2 3 3
4.81204 0.127886 0.127886 2 3 3
4.82203 0.128103 0.128103 2 3 3
4.83202 0.128321 0.128321 2 3 3
4.84201 0.128537 0.128537 2 3 3
4.852 0.128754 0.128754 2 3 3
4.86199 0.12897 0.12897 2 3 3
4.87198 0.129186 0.129186 2 3 3
4.88197 0.129401 0.129401 2 3 3
4.89195 0.129616 0.129616 2 3 3
4.90194 0.129831 0.129831 2 3 3
4.91193 0.130045 0.130045 2 3 3
4.92192 0.130259 0.130259 2 3 3
4.93191 0.130473 0.130473 2 3 3
4.9419 0.130686 0.130686 2 3 3
4.95189 0.130899 0.130899 2 3 3
4.96188 0.131112 0.131112 2 3 3
4.97187 0.131324 0.131324 2 3 3
4.98186 0.131536 0.131536 2 3 3
4.99185 0.131747 0.131747 2 3 3
5.00184 0.131959 0.131959 2 3 3
5.01183 0.13217 0.13217 2 3 3
5.02182 0.13238 0.13238 2 3 3
5.03181 0.132591 0.132591 2 3 3
5.0418 0.132801 0.132801 2 3 3
5.05179 0.13301 0.13301 2 3 3
5.06178 0.13322 0.13322 2 3 3
5.07177 0.133429 0.133429 2 3 3
5.08176 0.133638 0.133638 2 3 3
5.09175 0.133846 0.133846 2 3 3
5.10175 0.134054 0.134054 2 3 3
5.11174 0.134262 0.134262 2 3 3
5.12173 0.134469 0.134469 2 3 3
5.13172 0.134677 0.134677 2 3 3
5.14171 0.134883 0.134883 2 3 3
5.1517 0.13509 0.13509 2 3 3
5.16169 0.135296 0.135296 2 3 3
5.17168 0.135502 0.135502 2 3 3
5.18167 0.135708 0.135708 2 3 3
5.19166 0.135913 0.135913 2 3 3
5.20165 0.136118 0.136118 2 3 3
5.21165 0.136323 0.136323 2 3 3
5.22164 0.136527 0.136527 2 3 3
5.23163 0.136731 0.136731 2 3 3
5.24162 0.136935 0.136935 2 3 3
5.25161 0.137139 0.137139 2 3 3
5.2616 0.137342 0.137342 2 3 3
5.27159 0.137545 0.137545 2 3 3
5.28158 0.137748 0.137748 2 3 3
5.29158 0.13795 0.13795 2 3 3
5.30157 0.138152 0.138152 2 3 3
5.31156 0.138354 0.138354 2 3 3
5.32155 0.138555 0.138555 2 3 3
5.33154 0.138756 0.138756 2 3 3
5.34153 0.138957 0.138957 2 3 3
5.35153 0.139158 0.139158 2 3 3
5.36152 0.139358 0.139358 2 3 3
5.37151 0.139559 0.139559 2 3 3
5.3815 0.139758 0.139758 2 3 3
5.39149 0.139958 0.139958 2 3 3
5.40149 0.140157 0.140157 2 3 3
5.41148 0.140356 0.140356 2 3 3
5.42147 0.140555 0.140555 2 3 3
5.43146 0.140753 0.140753 2 3 3
5.44146 0.140951 0.140951 2 3 3
5.45145 0.141149 0.141149 2 3 3
5.46144 0.141347 0.141347 2 3 3
5.47143 0.141544 0.141544 2 3 3
5.48142 0.141741 0.141741 2 3 3
5.49142 0.141938 0.141938 2 3 3
5.50141 0.142135 0.142135 2 3 3
5.5114 0.142331 0.142331 2 3 3
5.52139 0.142527 0.142527 2 3 3
5.53139 0.142723 0.142723 2 3 3
5.54138 0.142918 0.142918 2 3 3
5.55137 0.143114 0.143114 2 3 3
5.56136 0.143309 0.143309 2 3 3
5.57136 0.143503 0.143503 2 3 3
5.58135 0.143698 0.143698 2 3 3
5.59134 0.143892 0.143892 2 3 3
5.60134 0.144086 0.144086 2 3 3
5.61133 0.14428 0.14428 2 3 3
5.62132 0.144473 0.144473 2 3 3
5.63131 0.144666 0.144666 2 3 3
5.64131 0.144859 0.144859 2 3 3
5.6513 0.145052 0.145052 2 3 3
5.66129 0.145244 0.145244 2 3 3
5.67129 0.145437 0.145437 2 3 3
5.68128 0.145628 0.145628 2 3 3
5.69127 0.14582 0.14582 2 3 3
5.70127 0.146012 0.146012 2 3 3
5.71126 0.146203 0.146203 2 3 3
5.72125 0.146394 0.146394 2 3 3
5.73125 0.146584 0.146584 2 3 3
5.74124 0.146775 0.146775 2 3 3
5.75123 0.146965 0.146965 2 3 3
5.76123 0.147155 0.147155 2 3 3
5.77122 0.147345 0.147345 2 3 3
5.78121 0.147534 0.147534 2 3 3
5.79121 0.147724 0.147724 2 3 3
5.8012 0.147913 0.147913 2 3 3
5.81119 0.148102 0.148102 2 3 3
5.82119 0.14829 0.14829 2 3 3
5.83118 0.148479 0.148479 2 3 3
5.84117 0.148667 0.148667 2 3 3
5.85117 0.148855 0.148855 2 3 3
5.86116 0.149042 0.149042 2 3 3
5.87116 0.14923 0.14923 2 3 3
5.88115 0.149417 0.149417 2 3 3
5.89114 0.149604 0.149604 2 3 3
5.90114 0.14979 0.14979 2 3 3
5.91113 0.149977 0.149977 2 3 3
5.92113 0.150163 0.150163 2 3 3
5.93112 0.150349 0.150349 2 3 3
5.94111 0.150535 0.150535 2 3 3
5.95111 0.150721 0.150721 2 3 3
5.9611 0.150906 0.150906 2 3 3
5.9711 0.151091 0.151091 2 3 3
5.98109 0.151276 0.151276 2 3 3
5.99108 0.151461 0.151461 2 3 3
6.00108 0.151645 0.151645 2 3 3
6.01107 0.15183 0.15183 2 3 3
6.02107 0.152014 0.152014 2 3 3
6.03106 0.152198 0.152198 2 3 3
6.04105 0.152381 0.152381 2 3 3
6.05105 0.152565 0.152565 2 3 3
6.06104 0.152748 0.152748 2 3 3
6.07104 0.152931 0.152931 2 3 3
6.08103 0.153113 0.153113 2 3 3
6.09103 0.153296 0.153296 2 3 3
6.10102 0.153478 0.153478 2 3 3
6.11101 0.15366 0.15366 2 3 3
6.12101 0.153842 0.153842 2 3 3
6.131 0.154024 0.154024 2 3 3
6.141 0.154206 0.154206 2 3 3
6.15099 0.154387 0.154387 2 3 3
6.16099 0.154568 0.154568 2 3 3
6.17098 0.154749 0.154749 2 3 3
6.18098 0.154929 0.154929 2 3 3
6.19097 0.15511 0.15511 2 3 3
6.20097 0.15529 0.15529 2 3 3
6.21096 0.15547 0.15547 2 3 3
6.22096 0.15565 0.15565 2 3 3
6.23095 0.15583 0.15583 2 3 3
6.24094 0.156009 0.156009 2 3 3
6.25094 0.156188 0.156188 2 3 3
6.26093 0.156367 0.156367 2 3 3
6.27093 0.156546 0.156546 2 3 3
6.28092 0.156725 0.156725 2 3 3
6.29092 0.156903 0.156903 2 3 3
6.30091 0.157081 0.157081 2 3 3
6.31091 0.157259 0.157259 2 3 3
6.3209 0.157437 0.157437 2 3 3
6.3309 0.157615 0.157615 2 3 3
6.34089 0.157792 0.157792 2 3 3
6.35089 0.15797 0.15797 2 3 3
6.36088 0.158147 0.158147 2 3 3
6.37088 0.158324 0.158324 2 3 3
6.38087 0.1585 0.1585 2 3 3
6.39087 0.158677 0.158677 2 3 3
6.40086 0.158853 0.158853 2 3 3
6.41086 0.159029 0.159029 2 3 3
6.42085 0.159205 0.159205 2 3 3
6.43085 0.159381 0.159381 2 3 3
6.44084 0.159556 0.159556 2 3 3
6.45084 0.159732 0.159732 2 3 3
6.46084 0.159907 0.159907 2 3 3
6.47083 0.160082 0.160082 2 3 3
6.48083 0.160256 0.160256 2 3 3
6.49082 0.160431 0.160431 2 3 3
6.50082 0.160605 0.160605 2 3 3
6.51081 0.16078 0.16078 2 3 3
6.52081 0.160954 0.160954 2 3 3
6.5308 0.161127 0.161127 2 3 3
6.5408 0.161301 0.161301 2 3 3
6.55079 0.161475 0.161475 2 3 3
6.56079 0.161648 0.161648 2 3 3
6.57078 0.161821 0.161821 2 3 3
6.58078 0.161994 0.161994 2 3 3
6.59078 0.162167 0.162167 2 3 3
6.60077 0.162339 0.162339 2 3 3
6.61077 0.162512 0.162512 2 3 3
6.62076 0.162684 0.162684 2 3 3
6.63076 0.162856 0.162856 2 3 3
6.64075 0.163028 0.163028 2 3 3
6.65075 0.163199 0.163199 2 3 3
6.66074 0.163371 0.163371 2 3 3
6.67074 0.163542 0.163542 2 3 3
6.68074 0.163713 0.163713 2 3 3
6.69073 0.163884 0.163884 2 3 3
6.70073 0.164055 0.164055 2 3 3
6.71072 0.164226 0.164226 2 3 3
6.72072 0.164396 0.164396 2 3 3
6.73071 0.164566 0.164566 2 3 3
6.74071 0.164736 0.164736 2 3 3
6.75071 0.164906 0.164906 2 3 3
6.7607 0.165076 0.165076 2 3 3
6.7707 0.165246 0.165246 2 3 3
6.78069 0.165415 0.165415 2 3 3
6.79069 0.165584 0.165584 2 3 3
6.80069 0.165753 0.165753 2 3 3
6.81068 0.165922 0.165922 2 3 3
6.82068 0.166091 0.166091 2 3 3
6.83067 0.16626 0.16626 2 3 3
6.84067 0.166428 0.166428 2 3 3
6.85067 0.166596 0.166596 2 3 3
6.86066 0.166764 0.166764 2 3 3
6.87066 0.166932 0.166932 2 3 3
6.88065 0.1671 0.1671 2 3 3
6.89065 0.167268 0.167268 2 3 3
6.90065 0.167435 0.167435 2 3 3
6.91064 0.167602 0.167602 2 3 3
6.92064 0.167769 0.167769 2 3 3
6.93063 0.167936 0.167936 2 3 3
6.94063 0.168103 0.168103 2 3 3
6.95063 0.168269 0.168269 2 3 3
6.96062 0.168436 0.168436 2 3 3
6.97062 0.168602 0.168602 2 3 3
6.98061 0.168768 0.168768 2 3 3
6.99061 0.168934 0.168934 2 3 3
7.00061 0.1691 0.1691 2 3 3
7.0106 0.169266 0.169266 2 3 3
7.0206 0.169431 0.169431 2 3 3
7.0306 0.169596 0.169596 2 3 3
7.04059 0.169762 0.169762 2 3 3
7.05059 0.169927 0.169927 2 3 3
7.06058 0.170091 0.170091 2 3 3
7.07058 0.170256 0.170256 2 3 3
7.08058 0.170421 0.170421 2 3 3
7.09057 0.170585 0.170585 2 3 3
7.10057 0.170749 0.170749 2 3 3
7.11057 0.170913 0.170913 2 3 3
7.12056 0.171077 0.171077 2 3 3
7.13056 0.171241 0.171241 2 3 3
7.14056 0.171404 0.171404 2 3 3
7.15055 0.171568 0.171568 2 3 3
7.16055 0.171731 0.171731 2 3 3
7.17054 0.171894 0.171894 2 3 3
7.18054 0.172057 0.172057 2 3 3
7.19054 0.17222 0.17222 2 3 3
7.20053 0.172383 0.172383 2 3 3
7.21053 0.172545 0.172545 2 3 3
7.22053 0.172708 0.172708 2 3 3
7.23052 0.17287 0.17287 2 3 3
7.24052 0.173032 0.173032 2 3 3
7.25052 0.173194 0.173194 2 3 3
7.26051 0.173356 0.173356 2 3 3
7.27051 0.173517 0.173517 2 3 3
7.28051 0.173679 0.173679 2 3 3
7.2905 0.17384 0.17384 2 3 3
7.3005 0.174001 0.174001 2 3 3
7.3105 0.174162 0.174162 2 3 3
7.32049 0.174323 0.174323 2 3 3
7.33049 0.174484 0.174484 2 3 3
7.34049 0.174644 0.174644 2 3 3
7.35048 0.174805 0.174805 2 3 3
7.36048 0.174965 0.174965 2 3 3
7.37048 0.175125 0.175125 2 3 3
7.38047 0.175285 0.175285 2 3 3
7.39047 0.175445 0.175445 2 3 3
7.40047 0.175605 0.175605 2 3 3
7.41046 0.175765 0.175765 2 3 3
7.42046 0.175924 0.175924 2 3 3
7.43046 0.176083 0.176083 2 3 3
7.44045 0.176243 0.176243 2 3 3
7.45045 0.176402 0.176402 2 3 3
7.46045 0.17656 0.17656 2 3 3
7.47044 0.176719 0.176719 2 3 3
7.48044 0.176878 0.176878 2 3 3
7.49044 0.177036 0.177036 2 3 3
7.50043 0.177195 0.177195 2 3 3
7.51043 0.177353 0.177353 2 3 3
7.52043 0.177511 0.177511 2 3 3
7.53043 0.177669 0.177669 2 3 3
7.54042 0.177826 0.177826 2 3 3
7.55042 0.177984 0.177984 2 3 3
7.56042 0.178142 0.178142 2 3 3
7.57041 0.178299 0.178299 2 3 3
7.58041 0.178456 0.178456 2 3 3
7.59041 0.178613 0.178613 2 3 3
7.6004 0.17877 0.17877 2 3 3
7.6104 0.178927 0.178927 2 3 3
7.6204 0.179084 0.179084 2 3 3
7.63039 0.17924 0.17924 2 3 3
7.64039 0.179397 0.179397 2 3 3
7.65039 0.179553 0.179553 2 3 3
7.66039 0.179709 0.179709 2 3 3
7.67038 0.179865 0.179865 2 3 3
7.68038 0.180021 0.180021 2 3 3
7.69038 0.180177 0.180177 2 3 3
7.70037 0.180332 0.180332 2 3 3
7.71037 0.180488 0.180488 2 3 3
7.72037 0.180643 0.180643 2 3 3
7.73037 0.180798 0.180798 2 3 3
7.74036 0.180953 0.180953 2 3 3
7.75036 0.181108 0.181108 2 3 3
7.76036 0.181263 0.181263 2 3 3
7.77035 0.181418 0.181418 2 3 3
7.78035 0.181572 0.181572 2 3 3
7.79035 0.181727 0.181727 2 3 3
7.80035 0.181881 0.181881 2 3 3
7.81034 0.182035 0.182035 2 3 3
7.82034 0.182189 0.182189 2 3 3
7.83034 0.182343 0.182343 2 3 3
7.84033 0.182497 0.182497 2 3 3
7.85033 0.182651 0.182651 2 3 3
7.86033 0.182804 0.182804 2 3 3
7.87033 0.182958 0.182958 2 3 3
7.88032 0.183111 0.183111 2 3 3
7.89032 0.183264 0.183264 2 3 3
7.90032 0.183417 0.183417 2 3 3
7.91031 0.18357 0.18357 2 3 3
7.92031 0.183723 0.183723 2 3 3
7.93031 0.183875 0.183875 2 3 3
7.94031 0.184028 0.184028 2 3 3
7.9503 0.18418 0.18418 2 3 3
7.9603 0.184332 0.184332 2 3 3
7.9703 0.184485 0.184485 2 3 3
7.9803 0.184637 0.184637 2 3 3
7.99029 0.184789 0.184789 2 3 3
8.00029 0.18494 0.18494 2 3 3
8.01029 0.185092 0.185092 2 3 3
8.02029 0.185244 0.185244 2 3 3
8.03028 0.185395 0.185395 2 3 3
8.04028 0.185546 0.185546 2 3 3
8.05028 0.185697 0.185697 2 3 3
8.06028 0.185848 0.185848 2 3 3
8.07027 0.185999 0.185999 2 3 3
8.08027 0.18615 0.18615 2 3 3
8.09027 0.186301 0.186301 2 3 3
8.10026 0.186451 0.186451 2 3 3
8.11026 0.186602 0.186602 2 3 3
8.12026 0.186752 0.186752 2 3 3
8.13026 0.186902 0.186902 2 3 3
8.14025 0.187052 0.187052 2 3 3
8.15025 0.187202 0.187202 2 3 3
8.16025 0.187352 0.187352 2 3 3
8.17025 0.187502 0.187502 2 3 3
8.18024 0.187652 0.187652 2 3 3
8.19024 0.187801 0.187801 2 3 3
8.20024 0.187951 0.187951 2 3 3
8.21024 0.1881 0.1881 2 3 3
8.22023 0.188249 0.188249 2 3 3
8.23023 0.188398 0.188398 2 3 3
8.24023 0.188547 0.188547 2 3 3
8.25023 0.188696 0.188696 2 3 3
8.26022 0.188844 0.188844 2 3 3
8.27022 0.188993 0.188993 2 3 3
8.28022 0.189141 0.189141 2 3 3
8.29022 0.18929 0.18929 2 3 3
8.30022 0.189438 0.189438 2 3 3
8.31021 0.189586 0.189586 2 3 3
8.32021 0.189734 0.189734 2 3 3
8.33021 0.189882 0.189882 2 3 3
8.34021 0.19003 0.19003 2 3 3
8.3502 0.190177 0.190177 2 3 3
8.3602 0.190325 0.190325 2 3 3
8.3702 0.190472 0.190472 2 3 3
8.3802 0.19062 0.19062 2 3 3
8.39019 0.190767 0.190767 2 3 3
8.40019 0.190914 0.190914 2 3 3
8.41019 0.191061 0.191061 2 3 3
8.42019 0.191208 0.191208 2 3 3
8.43018 0.191354 0.191354 2 3 3
8.44018 0.191501 0.191501 2 3 3
8.45018 0.191648 0.191648 2 3 3
8.46018 0.191794 0.191794 2 3 3
8.47018 0.19194 0.19194 2 3 3
8.48017 0.192087 0.192087 2 3 3
8.49017 0.192233 0.192233 2 3 3
8.50017 0.192379 0.192379 2 3 3
8.51017 0.192525 0.192525 2 3 3
8.52016 0.19267 0.19267 2 3 3
8.53016 0.192816 0.192816 2 3 3
8.54016 0.192961 0.192961 2 3 3
8.55016 0.193107 0.193107 2 3 3
8.56016 0.193252 0.193252 2 3 3
8.57015 0.193397 0.193397 2 3 3
8.58015 0.193543 0.193543 2 3 3
8.59015 0.193688 0.193688 2 3 3
8.60015 0.193833 0.193833 2 3 3
8.61014 0.193977 0.193977 2 3 3
8.62014 0.194122 0.194122 2 3 3
8.63014 0.194267 0.194267 2 3 3
8.64014 0.194411 0.194411 2 3 3
8.65014 0.194555 0.194555 2 3 3
8.66013 0.1947 0.1947 2 3 3
8.67013 0.194844 0.194844 2 3 3
8.68013 0.194988 0.194988 2 3 3
8.69013 0.195132 0.195132 2 3 3
8.70012 0.195276 0.195276 2 3 3
8.71012 0.195419 0.195419 2 3 3
8.72012 0.195563 0.195563 2 3 3
8.73012 0.195707 0.195707 2 3 3
8.74012 0.19585 0.19585 2 3 3
8.75011 0.195993 0.195993 2 3 3
8.76011 0.196137 0.196137 2 3 3
8.77011 0.19628 0.19628 2 3 3
8.78011 0.196423 0.196423 2 3 3
8.79011 0.196566 0.196566 2 3 3
8.8001 0.196708 0.196708 2 3 3
8.8101 0.196851 0.196851 2 3 3
8.8201 0.196994 0.196994 2 3 3
8.8301 0.197136 0.197136 2 3 3
8.8401 0.197279 0.197279 2 3 3
8.85009 0.197421 0.197421 2 3 3
8.86009 0.197563 0.197563 2 3 3
8.87009 0.197705 0.197705 2 3 3
8.88009 0.197847 0.197847 2 3 3
8.89009 0.197989 0.197989 2 3 3
8.90008 0.198131 0.198131 2 3 3
8.91008 0.198272 0.198272 2 3 3
8.92008 0.198414 0.198414 2 3 3
8.93008 0.198556 0.198556 2 3 3
8.94008 0.198697 0.198697 2 3 3
8.95007 0.198838 0.198838 2 3 3
8.96007 0.198979 0.198979 2 3 3
8.97007 0.199121 0.199121 2 3 3
8.98007 0.199262 0.199262 2 3 3
8.99007 0.199402 0.199402 2 3 3
9.00006 0.199543 0.199543 2 3 3
9.01006 0.199684 0.199684 2 3 3
9.02006 0.199825 0.199825 2 3 3
9.03006 0.199965 0.199965 2 3 3
9.04006 0.200105 0.200105 2 3 3
9.05005 0.200246 0.200246 2 3 3
9.06005 0.200386 0.200386 2 3 3
9.07005 0.200526 0.200526 2 3 3
9.08005 0.200666 0.200666 2 3 3
9.09005 0.200806 0.200806 2 3 3
9.10004 0.200946 0.200946 2 3 3
9.11004 0.201086 0.201086 2 3 3
9.12004 0.201225 0.201225 2 3 3
9.13004 0.201365 0.201365 2 3 3
9.14004 0.201504 0.201504 2 3 3
9.15003 0.201644 0.201644 2 3 3
9.16003 0.201783 0.201783 2 3 3
9.17003 0.201922 0.201922 2 3 3
9.18003 0.202061 0.202061 2 3 3
9.19003 0.2022 0.2022 2 3 3
9.20003 0.202339 0.202339 2 3 3
9.21002 0.202478 0.202478 2 3 3
9.22002 0.202616 0.202616 2 3 3
9.23002 0.202755 0.202755 2 3 3
9.24002 0.202893 0.202893 2 3 3
9.25002 0.203032 0.203032 2 3 3
9.26001 0.20317 0.20317 2 3 3
9.27001 0.203308 0.203308 2 3 3
9.28001 0.203446 0.203446 2 3 3
9.29001 0.203584 0.203584 2 3 3
9.30001 0.203722 0.203722 2 3 3
9.31001 0.20386 0.20386 2 3 3
9.32 0.203998 0.203998 2 3 3
9.33 0.204136 0.204136 2 3 3
9.34 0.204273 0.204273 2 3 3
9.35 0.204411 0.204411 2 3 3
9.36 0.204548 0.204548 2 3 3
9.36999 0.204685 0.204685 2 3 3
9.37999 0.204823 0.204823 2 3 3
9.38999 0.20496 0.20496 2 3 3
9.39999 0.205097 0.205097 2 3 3
9.40999 0.205234 0.205234 2 3 3
9.41999 0.205371 0.205371 2 3 3
9.42998 0.205507 0.205507 2 3 3
9.43998 0.205644 0.205644 2 3 3
9.44998 0.205781 0.205781 2 3 3
9.45998 0.205917 0.205917 2 3 3
9.46998 0.206053 0.206053 2 3 3
9.47998 0.20619 0.20619 2 3 3
9.48997 0.206326 0.206326 2 3 3
9.49997 0.206462 0.206462 2 3 3
9.50997 0.206598 0.206598 2 3 3
9.51997 0.206734 0.206734 2 3 3
9.52997 0.20687 0.20687 2 3 3
9.53997 0.207006 0.207006 2 3 3
9.54996 0.207141 0.207141 2 3 3
9.55996 0.207277 0.207277 2 3 3
9.56996 0.207412 0.207412 2 3 3
9.57996 0.207548 0.207548 2 3 3
9.58996 0.207683 0.207683 2 3 3
9.59995 0.207818 0.207818 2 3 3
9.60995 0.207954 0.207954 2 3 3
9.61995 0.208089 0.208089 2 3 3
9.62995 0.208224 0.208224 2 3 3
9.63995 0.208359 0.208359 2 3 3
9.64995 0.208493 0.208493 2 3 3
9.65994 0.208628 0.208628 2 3 3
9.66994 0.208763 0.208763 2 3 3
9.67994 0.208897 0.208897 2 3 3
9.68994 0.209032 0.209032 2 3 3
9.69994 0.209166 0.209166 2 3 3
9.70994 0.2093 0.2093 2 3 3
9.71994 0.209435 0.209435 2 3 3
9.72993 0.209569 0.209569 2 3 3
9.73993 0.209703 0.209703 2 3 3
9.74993 0.209837 0.209837 2 3 3
9.75993 0.209971 0.209971 2 3 3
9.76993 0.210104 0.210104 2 3 3
9.77993 0.210238 0.210238 2 3 3
9.78992 0.210372 0.210372 2 3 3
9.79992 0.210505 0.210505 2 3 3
9.80992 0.210639 0.210639 2 3 3
9.81992 0.210772 0.210772 2 3 3
9.82992 0.210905 0.210905 2 3 3
9.83992 0.211039 0.211039 2 3 3
9.84991 0.211172 0.211172 2 3 3
9.85991 0.211305 0.211305 2 3 3
9.86991 0.211438 0.211438 2 3 3
9.87991 0.211571 0.211571 2 3 3
9.88991 0.211703 0.211703 2 3 3
9.89991 0.211836 0.211836 2 3 3
9.9099 0.211969 0.211969 2 3 3
9.9199 0.212101 0.212101 2 3 3
9.9299 0.212234 0.212234 2 3 3
9.9399 0.212366 0.212366 2 3 3
9.9499 0.212498 0.212498 2 3 3
9.9599 0.212631 0.212631 2 3 3
9.9699 0.212763 0.212763 2 3 3
9.97989 0.212895 0.212895 2 3 3
9.98989 0.213027 0.213027 2 3 3
9.99989 0.213159 0.213159 2 3 3
10.0099 0.21329 0.21329 2 3 3
9.1946 0.21329 0.21329 2 5 2
9.19461 0.21329 0.21329 2 5 2
9.19461 0.21329 0.21329 2 5 2
9.19461 0.21329 0.21329 2 5 2
9.19461 0.21329 0.21329 2 5 2
9.19461 0.11 0.11 2 5 2
9.19361 0.109989 0.109989 2 5 2
9.19161 0.109968 0.109968 2 5 2
9.18761 0.109926 0.109926 2 5 2
9.17961 0.109842 0.109842 2 5 2
9.16961 0.109737 0.109737 2 5 2
9.15961 0.109632 0.109632 2 5 2
9.14961 0.109526 0.109526 2 5 2
9.13961 0.109421 0.109421 2 5 2
9.12961 0.109315 0.109315 2 5 2
9.11961 0.10921 0.10921 2 5 2
9.10961 0.109104 0.109104 2 5 2
9.09961 0.108998 0.108998 2 5 2
9.08961 0.108892 0.108892 2 5 2
9.07961 0.108786 0.108786 2 5 2
9.06961 0.108679 0.108679 2 5 2
9.05962 0.108573 0.108573 2 5 2
9.04962 0.108466 0.108466 2 5 2
9.03962 0.10836 0.10836 2 5 2
9.02962 0.108253 0.108253 2 5 2
9.01962 0.108146 0.108146 2 5 2
9.00962 0.10804 0.10804 2 5 2
8.99962 0.107933 0.107933 2 5 2
8.98962 0.107825 0.107825 2 5 2
8.97962 0.107718 0.107718 2 5 2
8.96962 0.107611 0.107611 2 5 2
8.95962 0.107503 0.107503 2 5 2
8.94962 0.107396 0.107396 2 5 2
8.93962 0.107288 0.107288 2 5 2
8.92962 0.107181 0.107181 2 5 2
8.91962 0.107073 0.107073 2 5 2
8.90962 0.106965 0.106965 2 5 2
8.89963 0.106857 0.106857 2 5 2
8.88963 0.106748 0.106748 2 5 2
8.87963 0.10664 0.10664 2 5 2
8.86963 0.106532 0.106532 2 5 2
8.85963 0.106423 0.106423 2 5 2
8.84963 0.106314 0.106314 2 5 2
8.83963 0.106206 0.106206 2 5 2
8.82963 0.106097 0.106097 2 5 2
8.81963 0.105988 0.105988 2 5 2
8.80963 0.105879 0.105879 2 5 2
8.79963 0.10577 0.10577 2 5 2
8.78963 0.10566 0.10566 2 5 2
8.77963 0.105551 0.105551 2 5 2
8.76963 0.105441 0.105441 2 5 2
8.75963 0.105332 0.105332 2 5 2
8.74964 0.105222 0.105222 2 5 2
8.73964 0.105112 0.105112 2 5 2
8.72964 0.105002 0.105002 2 5 2
8.71964 0.104892 0.104892 2 5 2
8.70964 0.104781 0.104781 2 5 2
8.69964 0.104671 0.104671 2 5 2
8.68964 0.104561 0.104561 2 5 2
8.67964 0.10445 0.10445 2 5 2
8.66964 0.104339 0.104339 2 5 2
8.65964 0.104228 0.104228 2 5 2
8.64964 0.104117 0.104117 2 5 2
8.63964 0.104006 0.104006 2 5 2
8.62964 0.103895 0.103895 2 5 2
8.61964 0.103784 0.103784 2 5 2
8.60964 0.103672 0.103672 2 5 2
8.59965 0.103561 0.103561 2 5 2
8.58965 0.103449 0.103449 2 5 2
8.57965 0.103337 0.103337 2 5 2
8.56965 0.103225 0.103225 2 5 2
8.55965 0.103113 0.103113 2 5 2
8.54965 0.103001 0.103001 2 5 2
8.53965 0.102889 0.102889 2 5 2
8.52965 0.102776 0.102776 2 5 2
8.51965 0.102664 0.102664 2 5 2
8.50965 0.102551 0.102551 2 5 2
8.49965 0.102438 0.102438 2 5 2
8.48965 0.102325 0.102325 2 5 2
8.47965 0.102212 0.102212 2 5 2
8.46965 0.102099 0.102099 2 5 2
8.45965 0.101986 0.101986 2 5 2
8.44966 0.101872 0.101872 2 5 2
8.43966 0.101759 0.101759 2 5 2
8.42966 0.101645 0.101645 2 5 2
8.41966 0.101531 0.101531 2 5 2
8.40966 0.101417 0.101417 2 5 2
8.39966 0.101303 0.101303 2 5 2
8.38966 0.101189 0.101189 2 5 2
8.37966 0.101075 0.101075 2 5 2
8.36966 0.10096 0.10096 2 5 2
8.35966 0.100846 0.100846 2 5 2
8.34966 0.100731 0.100731 2 5 2
8.33966 0.100616 0.100616 2 5 2
8.32966 0.100501 0.100501 2 5 2
8.31966 0.100386 0.100386 2 5 2
8.30967 0.100271 0.100271 2 5 2
8.29967 0.100155 0.100155 2 5 2
8.28967 0.10004 0.10004 2 5 2
8.27967 0.0999239 0.0999239 2 5 2
8.26967 0.0998081 0.0998081 2 5 2
8.25967 0.0996922 0.0996922 2 5 2
8.24967 0.0995761 0.0995761 2 5 2
8.23967 0.0994599 0.0994599 2 5 2
8.22967 0.0993435 0.0993435 2 5 2
8.21967 0.099227 0.099227 2 5 2
8.20967 0.0991103 0.0991103 2 5 2
8.19967 0.0989936 0.0989936 2 5 2
8.18967 0.0988766 0.0988766 2 5 2
8.17967 0.0987596 0.0987596 2 5 2
8.16968 0.0986424 0.0986424 2 5 2
8.15968 0.098525 0.098525 2 5 2
8.14968 0.0984075 0.0984075 2 5 2
8.13968 0.0982899 0.0982899 2 5 2
8.12968 0.0981721 0.0981721 2 5 2
8.11968 0.0980542 0.0980542 2 5 2
8.10968 0.0979362 0.0979362 2 5 2
8.09968 0.097818 0.097818 2 5 2
8.08968 0.0976996 0.0976996 2 5 2
8.07968 0.0975811 0.0975811 2 5 2
8.06968 0.0974625 0.0974625 2 5 2
8.05968 0.0973437 0.0973437 2 5 2
8.04968 0.0972248 0.0972248 2 5 2
8.03969 0.0971057 0.0971057 2 5 2
8.02969 0.0969865 0.0969865 2 5 2
8.01969 0.0968671 0.0968671 2 5 2
8.00969 0.0967476 0.0967476 2 5 2
7.99969 0.0966279 0.0966279 2 5 2
7.98969 0.096508 0.096508 2 5 2
7.97969 0.0963881 0.0963881 2 5 2
7.96969 0.0962679 0.0962679 2 5 2
7.95969 0.0961477 0.0961477 2 5 2
7.94969 0.0960272 0.0960272 2 5 2
7.93969 0.0959066 0.0959066 2 5 2
7.92969 0.0957859 0.0957859 2 5 2
7.9197 0.095665 0.095665 2 5 2
7.9097 0.0955439 0.0955439 2 5 2
7.8997 0.0954227 0.0954227 2 5 2
7.8897 0.0953014 0.0953014 2 5 2
7.8797 0.0951798 0.0951798 2 5 2
7.8697 0.0950582 0.0950582 2 5 2
7.8597 0.0949363 0.0949363 2 5 2
7.8497 0.0948143 0.0948143 2 5 2
7.8397 0.0946922 0.0946922 2 5 2
7.8297 0.0945698 0.0945698 2 5 2
7.8197 0.0944474 0.0944474 2 5 2
7.8097 0.0943247 0.0943247 2 5 2
7.79971 0.0942019 0.0942019 2 5 2
7.78971 0.094079 0.094079 2 5 2
7.77971 0.0939558 0.0939558 2 5 2
7.76971 0.0938326 0.0938326 2 5 2
7.75971 0.0937091 0.0937091 2 5 2
7.74971 0.0935855 0.0935855 2 5 2
7.73971 0.0934617 0.0934617 2 5 2
7.72971 0.0933377 0.0933377 2 5 2
7.71971 0.0932136 0.0932136 2 5 2
7.70971 0.0930893 0.0930893 2 5 2
7.69971 0.0929649 0.0929649 2 5 2
7.68971 0.0928402 0.0928402 2 5 2
7.67972 0.0927155 0.0927155 2 5 2
7.66972 0.0925905 0.0925905 2 5 2
7.65972 0.0924653 0.0924653 2 5 2
7.64972 0.09234 0.09234 2 5 2
7.63972 0.0922146 0.0922146 2 5 2
7.62972 0.0920889 0.0920889 2 5 2
7.61972 0.0919631 0.0919631 2 5 2
7.60972 0.0918371 0.0918371 2 5 2
7.59972 0.0917109 0.0917109 2 5 2
7.58972 0.0915845 0.0915845 2 5 2
7.57972 0.091458 0.091458 2 5 2
7.56973 0.0913313 0.0913313 2 5 2
7.55973 0.0912044 0.0912044 2 5 2
7.54973 0.0910773 0.0910773 2 5 2
7.53973 0.0909501 0.0909501 2 5 2
7.52973 0.0908226 0.0908226 2 5 2
7.51973 0.090695 0.090695 2 5 2
7.50973 0.0905672 0.0905672 2 5 2
7.49973 0.0904392 0.0904392 2 5 2
7.48973 0.0903111 0.0903111 2 5 2
7.47973 0.0901827 0.0901827 2 5 2
7.46973 0.0900542 0.0900542 2 5 2
7.45974 0.0899255 0.0899255 2 5 2
7.44974 0.0897966 0.0897966 2 5 2
7.43974 0.0896675 0.0896675 2 5 2
7.42974 0.0895382 0.0895382 2 5 2
7.41974 0.0894087 0.0894087 2 5 2
7.40974 0.089279 0.089279 2 5 2
7.39974 0.0891492 0.0891492 2 5 2
7.38974 0.0890191 0.0890191 2 5 2
7.37974 0.0888889 0.0888889 2 5 2
7.36974 0.0887584 0.0887584 2 5 2
7.35974 0.0886278 0.0886278 2 5 2
7.34975 0.088497 0.088497 2 5 2
7.33975 0.0883659 0.0883659 2 5 2
7.32975 0.0882347 0.0882347 2 5 2
7.31975 0.0881033 0.0881033 2 5 2
7.30975 0.0879717 0.0879717 2 5 2
7.29975 0.0878399 0.0878399 2 5 2
7.28975 0.0877078 0.0877078 2 5 2
7.27975 0.0875756 0.0875756 2 5 2
7.26975 0.0874432 0.0874432 2 5 2
7.25975 0.0873106 0.0873106 2 5 2
7.24976 0.0871777 0.0871777 2 5 2
7.23976 0.0870447 0.0870447 2 5 2
7.22976 0.0869114 0.0869114 2 5 2
7.21976 0.086778 0.086778 2 5 2
7.20976 0.0866443 0.0866443 2 5 2
7.19976 0.0865104 0.0865104 2 5 2
7.18976 0.0863763 0.0863763 2 5 2
7.17976 0.086242 0.086242 2 5 2
7.16976 0.0861075 0.0861075 2 5 2
7.15976 0.0859728 0.0859728 2 5 2
7.14977 0.0858379 0.0858379 2 5 2
7.13977 0.0857027 0.0857027 2 5 2
7.12977 0.0855673 0.0855673 2 5 2
7.11977 0.0854317 0.0854317 2 5 2
7.10977 0.0852959 0.0852959 2 5 2
7.09977 0.0851599 0.0851599 2 5 2
7.08977 0.0850237 0.0850237 2 5 2
7.07977 0.0848872 0.0848872 2 5 2
7.06977 0.0847505 0.0847505 2 5 2
7.05978 0.0846136 0.0846136 2 5 2
7.04978 0.0844764 0.0844764 2 5 2
7.03978 0.0843391 0.0843391 2 5 2
7.02978 0.0842015 0.0842015 2 5 2
7.01978 0.0840636 0.0840636 2 5 2
7.00978 0.0839256 0.0839256 2 5 2
6.99978 0.0837873 0.0837873 2 5 2
6.98978 0.0836488 0.0836488 2 5 2
6.97978 0.08351 0.08351 2 5 2
6.96979 0.083371 0.083371 2 5 2
6.95979 0.0832318 0.0832318 2 5 2
6.94979 0.0830923 0.0830923 2 5 2
6.93979 0.0829526 0.0829526 2 5 2
6.92979 0.0828127 0.0828127 2 5 2
6.91979 0.0826725 0.0826725 2 5 2
6.90979 0.0825321 0.0825321 2 5 2
6.89979 0.0823914 0.0823914 2 5 2
6.88979 0.0822505 0.0822505 2 5 2
6.8798 0.0821093 0.0821093 2 5 2
6.8698 0.0819679 0.0819679 2 5 2
6.8598 0.0818263 0.0818263 2 5 2
6.8498 0.0816844 0.0816844 2 5 2
6.8398 0.0815422 0.0815422 2 5 2
6.8298 0.0813998 0.0813998 2 5 2
6.8198 0.0812571 0.0812571 2 5 2
6.8098 0.0811142 0.0811142 2 5 2
6.7998 0.0809711 0.0809711 2 5 2
6.78981 0.0808276 0.0808276 2 5 2
6.77981 0.0806839 0.0806839 2 5 2
6.76981 0.08054 0.08054 2 5 2
6.75981 0.0803958 0.0803958 2 5 2
6.74981 0.0802513 0.0802513 2 5 2
6.73981 0.0801066 0.0801066 2 5 2
6.72981 0.0799616 0.0799616 2 5 2
6.71981 0.0798163 0.0798163 2 5 2
6.70982 0.0796707 0.0796707 2 5 2
6.69982 0.0795249 0.0795249 2 5 2
6.68982 0.0793788 0.0793788 2 5 2
6.67982 0.0792325 0.0792325 2 5 2
6.66982 0.0790859 0.0790859 2 5 2
6.65982 0.0789389 0.0789389 2 5 2
6.64982 0.0787918 0.0787918 2 5 2
6.63982 0.0786443 0.0786443 2 5 2
6.62983 0.0784965 0.0784965 2 5 2
6.61983 0.0783485 0.0783485 2 5 2
6.60983 0.0782002 0.0782002 2 5 2
6.59983 0.0780516 0.0780516 2 5 2
6.58983 0.0779027 0.0779027 2 5 2
6.57983 0.0777535 0.0777535 2 5 2
6.56983 0.077604 0.077604 2 5 2
6.55983 0.0774542 0.0774542 2 5 2
6.54984 0.0773042 0.0773042 2 5 2
6.53984 0.0771538 0.0771538 2 5 2
6.52984 0.0770032 0.0770032 2 5 2
6.51984 0.0768522 0.0768522 2 5 2
6.50984 0.0767009 0.0767009 2 5 2
6.49984 0.0765494 0.0765494 2 5 2
6.48984 0.0763975 0.0763975 2 5 2
6.47985 0.0762453 0.0762453 2 5 2
6.46985 0.0760928 0.0760928 2 5 2
6.45985 0.07594 0.07594 2 5 2
6.44985 0.0757869 0.0757869 2 5 2
6.43985 0.0756335 0.0756335 2 5 2
6.42985 0.0754797 0.0754797 2 5 2
6.41985 0.0753257 0.0753257 2 5 2
6.40986 0.0751713 0.0751713 2 5 2
6.39986 0.0750166 0.0750166 2 5 2
6.38986 0.0748615 0.0748615 2 5 2
6.37986 0.0747062 0.0747062 2 5 2
6.36986 0.0745505 0.0745505 2 5 2
6.35986 0.0743945 0.0743945 2 5 2
6.34986 0.0742381 0.0742381 2 5 2
6.33987 0.0740814 0.0740814 2 5 2
6.32987 0.0739244 0.0739244 2 5 2
6.31987 0.073767 0.073767 2 5 2
6.30987 0.0736093 0.0736093 2 5 2
6.29987 0.0734512 0.0734512 2 5 2
6.28987 0.0732928 0.0732928 2 5 2
6.27987 0.0731341 0.0731341 2 5 2
6.26988 0.072975 0.072975 2 5 2
6.25988 0.0728155 0.0728155 2 5 2
6.24988 0.0726557 0.0726557 2 5 2
6.23988 0.0724955 0.0724955 2 5 2
6.22988 0.072335 0.072335 2 5 2
6.21988 0.0721741 0.0721741 2 5 2
6.20989 0.0720128 0.0720128 2 5 2
6.19989 0.0718512 0.0718512 2 5 2
6.18989 0.0716892 0.0716892 2 5 2
6.17989 0.0715268 0.0715268 2 5 2
6.16989 0.0713641 0.0713641 2 5 2
6.15989 0.071201 0.071201 2 5 2
6.14989 0.0710375 0.0710375 2 5 2
6.1399 0.0708736 0.0708736 2 5 2
6.1299 0.0707093 0.0707093 2 5 2
6.1199 0.0705446 0.0705446 2 5 2
6.1099 0.0703796 0.0703796 2 5 2
6.0999 0.0702141 0.0702141 2 5 2
6.0899 0.0700483 0.0700483 2 5 2
6.07991 0.069882 0.069882 2 5 2
6.06991 0.0697154 0.0697154 2 5 2
6.05991 0.0695483 0.0695483 2 5 2
6.04991 0.0693808 0.0693808 2 5 2
6.03991 0.069213 0.069213 2 5 2
6.02991 0.0690447 0.0690447 2 5 2
6.01992 0.0688759 0.0688759 2 5 2
6.00992 0.0687068 0.0687068 2 5 2
5.99992 0.0685372 0.0685372 2 5 2
5.98992 0.0683673 0.0683673 2 5 2
5.97992 0.0681968 0.0681968 2 5 2
5.96993 0.068026 0.068026 2 5 2
5.95993 0.0678547 0.0678547 2 5 2
5.94993 0.067683 0.067683 2 5 2
5.93993 0.0675108 0.0675108 2 5 2
5.92993 0.0673382 0.0673382 2 5 2
5.91993 0.0671651 0.0671651 2 5 2
5.90994 0.0669916 0.0669916 2 5 2
5.89994 0.0668176 0.0668176 2 5 2
5.88994 0.0666431 0.0666431 2 5 2
5.87994 0.0664682 0.0664682 2 5 2
5.86994 0.0662928 0.0662928 2 5 2
5.85995 0.066117 0.066117 2 5 2
5.84995 0.0659406 0.0659406 2 5 2
5.83995 0.0657638 0.0657638 2 5 2
5.82995 0.0655865 0.0655865 2 5 2
5.81995 0.0654087 0.0654087 2 5 2
5.80995 0.0652304 0.0652304 2 5 2
5.79996 0.0650517 0.0650517 2 5 2
5.78996 0.0648724 0.0648724 2 5 2
5.77996 0.0646926 0.0646926 2 5 2
5.76996 0.0645123 0.0645123 2 5 2
5.75996 0.0643315 0.0643315 2 5 2
5.74997 0.0641502 0.0641502 2 5 2
5.73997 0.0639683 0.0639683 2 5 2
5.72997 0.0637859 0.0637859 2 5 2
5.71997 0.063603 0.063603 2 5 2
5.70998 0.0634196 0.0634196 2 5 2
5.69998 0.0632356 0.0632356 2 5 2
5.68998 0.0630511 0.0630511 2 5 2
5.67998 0.062866 0.062866 2 5 2
5.66998 0.0626804 0.0626804 2 5 2
5.65999 0.0624942 0.0624942 2 5 2
5.64999 0.0623074 0.0623074 2 5 2
5.63999 0.0621201 0.0621201 2 5 2
5.62999 0.0619322 0.0619322 2 5 2
5.61999 0.0617437 0.0617437 2 5 2
5.61 0.0615546 0.0615546 2 5 2
5.6 0.0613649 0.0613649 2 5 2
5.59 0.0611747 0.0611747 2 5 2
5.58 0.0609838 0.0609838 2 5 2
5.57001 0.0607923 0.0607923 2 5 2
5.56001 0.0606002 0.0606002 2 5 2
5.55001 0.0604075 0.0604075 2 5 2
5.54001 0.0602142 0.0602142 2 5 2
5.53002 0.0600202 0.0600202 2 5 2
5.52002 0.0598256 0.0598256 2 5 2
5.51002 0.0596303 0.0596303 2 5 2
5.50002 0.0594344 0.0594344 2 5 2
5.49002 0.0592378 0.0592378 2 5 2
5.48003 0.0590406 0.0590406 2 5 2
5.47003 0.0588427 0.0588427 2 5 2
5.46003 0.0586441 0.0586441 2 5 2
5.45003 0.0584448 0.0584448 2 5 2
5.44004 0.0582449 0.0582449 2 5 2
5.43004 0.0580442 0.0580442 2 5 2
5.42004 0.0578429 0.0578429 2 5 2
5.41004 0.0576408 0.0576408 2 5 2
5.40005 0.057438 0.057438 2 5 2
5.39005 0.0572344 0.0572344 2 5 2
5.38005 0.0570302 0.0570302 2 5 2
5.37006 0.0568252 0.0568252 2 5 2
5.36006 0.0566194 0.0566194 2 5 2
5.35006 0.0564129 0.0564129 2 5 2
5.34006 0.0562056 0.0562056 2 5 2
5.33007 0.0559975 0.0559975 2 5 2
5.32007 0.0557886 0.0557886 2 5 2
5.31007 0.0555789 0.0555789 2 5 2
5.30007 0.0553685 0.0553685 2 5 2
5.29008 0.0551572 0.0551572 2 5 2
5.28008 0.0549451 0.0549451 2 5 2
5.27008 0.0547321 0.0547321 2 5 2
5.26009 0.0545183 0.0545183 2 5 2
5.25009 0.0543037 0.0543037 2 5 2
5.24009 0.0540882 0.0540882 2 5 2
5.2301 0.0538718 0.0538718 2 5 2
5.2201 0.0536545 0.0536545 2 5 2
5.2101 0.0534364 0.0534364 2 5 2
5.2001 0.0532173 0.0532173 2 5 2
5.19011 0.0529973 0.0529973 2 5 2
5.18011 0.0527764 0.0527764 2 5 2
5.17011 0.0525545 0.0525545 2 5 2
5.16012 0.0523317 0.0523317 2 5 2
5.15012 0.052108 0.052108 2 5 2
5.14012 0.0518832 0.0518832 2 5 2
5.13013 0.0516574 0.0516574 2 5 2
5.12013 0.0514307 0.0514307 2 5 2
5.11013 0.0512029 0.0512029 2 5 2
5.10014 0.0509741 0.0509741 2 5 2
5.09014 0.0507443 0.0507443 2 5 2
5.08014 0.0505134 0.0505134 2 5 2
5.07015 0.0502814 0.0502814 2 5 2
5.06015 0.0500483 0.0500483 2 5 2
5.05015 0.0498141 0.0498141 2 5 2
5.04016 0.0495788 0.0495788 2 5 2
5.03016 0.0493424 0.0493424 2 5 2
5.02017 0.0491048 0.0491048 2 5 2
5.01017 0.0488661 0.0488661 2 5 2
5.00017 0.0486261 0.0486261 2 5 2
4.99018 0.048385 0.048385 2 5 2
4.98018 0.0481426 0.0481426 2 5 2
4.97018 0.047899 0.047899 2 5 2
4.96019 0.0476542 0.0476542 2 5 2
4.95019 0.047408 0.047408 2 5 2
4.9402 0.0471606 0.0471606 2 5 2
4.9302 0.0469118 0.0469118 2 5 2
4.9202 0.0466617 0.0466617 2 5 2
4.91021 0.0464102 0.0464102 2 5 2
4.90021 0.0461574 0.0461574 2 5 2
4.89022 0.0459031 0.0459031 2 5 2
4.88022 0.0456474 0.0456474 2 5 2
4.87022 0.0453902 0.0453902 2 5 2
4.86023 0.0451316 0.0451316 2 5 2
4.85023 0.0448715 0.0448715 2 5 2
4.84024 0.0446098 0.0446098 2 5 2
4.83024 0.0443466 0.0443466 2 5 2
4.82025 0.0440818 0.0440818 2 5 2
4.81025 0.0438153 0.0438153 2 5 2
4.80026 0.0435472 0.0435472 2 5 2
4.79026 0.0432775 0.0432775 2 5 2
4.78027 0.043006 0.043006 2 5 2
4.77027 0.0427328 0.0427328 2 5 2
4.76028 0.0424578 0.0424578 2 5 2
4.75028 0.042181 0.042181 2 5 2
4.74029 0.0419024 0.0419024 2 5 2
4.73029 0.0416219 0.0416219 2 5 2
4.7203 0.0413395 0.0413395 2 5 2
4.7103 0.0410551 0.0410551 2 5 2
4.70031 0.0407687 0.0407687 2 5 2
4.69031 0.0404802 0.0404802 2 5 2
4.68032 0.0401897 0.0401897 2 5 2
4.67032 0.0398971 0.0398971 2 5 2
4.66033 0.0396022 0.0396022 2 5 2
4.65033 0.0393052 0.0393052 2 5 2
4.64034 0.0390058 0.0390058 2 5 2
4.63035 0.0387042 0.0387042 2 5 2
4.62035 0.0384001 0.0384001 2 5 2
4.61036 0.0380936 0.0380936 2 5 2
4.60037 0.0377846 0.0377846 2 5 2
4.59037 0.037473 0.037473 2 5 2
4.58038 0.0371588 0.0371588 2 5 2
4.57038 0.036842 0.036842 2 5 2
4.56039 0.0365223 0.0365223 2 5 2
4.5504 0.0361998 0.0361998 2 5 2
4.5404 0.0358744 0.0358744 2 5 2
4.53041 0.035546 0.035546 2 5 2
4.52042 0.0352145 0.0352145 2 5 2
4.51043 0.0348799 0.0348799 2 5 2
4.50043 0.034542 0.034542 2 5 2
4.49044 0.0342008 0.0342008 2 5 2
4.48045 0.0338561 0.0338561 2 5 2
4.47046 0.0335078 0.0335078 2 5 2
4.46046 0.0331559 0.0331559 2 5 2
4.45047 0.0328002 0.0328002 2 5 2
4.44048 0.0324405 0.0324405 2 5 2
4.43049 0.0320769 0.0320769 2 5 2
4.4205 0.031709 0.031709 2 5 2
4.41051 0.0313368 0.0313368 2 5 2
4.40052 0.0309602 0.0309602 2 5 2
4.39052 0.0305789 0.0305789 2 5 2
4.38053 0.0301927 0.0301927 2 5 2
4.37054 0.0298016 0.0298016 2 5 2
4.36055 0.0294052 0.0294052 2 5 2
4.35056 0.0290034 0.0290034 2 5 2
4.34057 0.028596 0.028596 2 5 2
4.33058 0.0281827 0.0281827 2 5 2
4.3206 0.0277632 0.0277632 2 5 2
4.31061 0.0273373 0.0273373 2 5 2
4.30062 0.0269047 0.0269047 2 5 2
4.29063 0.026465 0.026465 2 5 2
4.28064 0.0260178 0.0260178 2 5 2
4.27066 0.0255629 0.0255629 2 5 2
4.26067 0.0250997 0.0250997 2 5 2
4.25068 0.0246278 0.0246278 2 5 2
4.2407 0.0241467 0.0241467 2 5 2
4.23071 0.0236558 0.0236558 2 5 2
4.22073 0.0231546 0.0231546 2 5 2
4.21074 0.0226422 0.0226422 2 5 2
4.20076 0.0221181 0.0221181 2 5 2
4.19078 0.0215813 0.0215813 2 5 2
4.18079 0.0210308 0.0210308 2 5 2
4.17081 0.0204655 0.0204655 2 5 2
4.16083 0.0198843 0.0198843 2 5 2
4.15085 0.0192856 0.0192856 2 5 2
4.14087 0.0186678 0.0186678 2 5 2
4.1309 0.018029 0.018029 2 5 2
4.12092 0.0173668 0.0173668 2 5 2
4.11095 0.0166784 0.0166784 2 5 2
4.10098 0.0159606 0.0159606 2 5 2
4.09101 0.0152092 0.0152092 2 5 2
4.08104 0.0144189 0.0144189 2 5 2
4.07108 0.0135831 0.0135831 2 5 2
4.06113 0.0126929 0.0126929 2 5 2
4.05118 0.011736 0.011736 2 5 2
4.04123 0.0106949 0.0106949 2 5 2
4.0313 0.00954184 0.00954184 2 5 2
4.02139 0.00823204 0.00823204 2 5 2
4.01151 0.00667588 0.00667588 2 5 2
4.00171 0.00464267 0.00464267 2 5 2
3.99251 -0.000196565 -0.000196565 2 5 2
3.99251 -0.000196565 -0.000196565 2 5 2
0.0736207 0.11 0.11 2 2 3
0.0733641 0.109609 0.109609 2 2 3
0.0731202 0.109236 0.109236 2 2 3
0.0726298 0.108483 0.108483 2 2 3
0.071668 0.106994 0.106994 2 2 3
0.070523 0.105187 0.105187 2 2 3
0.0694541 0.103452 0.103452 2 2 3
0.0684428 0.101771 0.101771 2 2 3
0.0674797 0.100138 0.100138 2 2 3
0.0665618 0.0985488 0.0985488 2 2 3
0.0656863 0.0970022 0.0970022 2 2 3
0.0648508 0.0954956 0.0954956 2 2 3
0.0640528 0.0940272 0.0940272 2 2 3
0.0632902 0.092595 0.092595 2 2 3
0.0625609 0.0911973 0.0911973 2 2 3
0.0618632 0.0898324 0.0898324 2 2 3
0.0611953 0.0884988 0.0884988 2 2 3
0.0605555 0.087195 0.087195 2 2 3
0.0599424 0.0859195 0.0859195 2 2 3
0.0593545 0.0846711 0.0846711 2 2 3
0.0587907 0.0834485 0.0834485 2 2 3
0.0582495 0.0822506 0.0822506 2 2 3
0.05773 0.0810762 0.0810762 2 2 3
0.057231 0.0799243 0.0799243 2 2 3
0.0567515 0.0787939 0.0787939 2 2 3
0.0562907 0.077684 0.077684 2 2 3
0.0558477 0.0765937 0.0765937 2 2 3
0.0554215 0.0755222 0.0755222 2 2 3
0.0550115 0.0744687 0.0744687 2 2 3
0.054617 0.0734323 0.0734323 2 2 3
0.0542372 0.0724124 0.0724124 2 2 3
0.0538715 0.0714081 0.0714081 2 2 3
0.0535193 0.0704189 0.0704189 2 2 3
0.0531801 0.0694441 0.0694441 2 2 3
0.0528532 0.0684831 0.0684831 2 2 3
0.0525383 0.0675352 0.0675352 2 2 3
0.0522347 0.0665999 0.0665999 2 2 3
0.0519421 0.0656766 0.0656766 2 2 3
0.05166 0.0647648 0.0647648 2 2 3
0.0513881 0.0638639 0.0638639 2 2 3
0.0511258 0.0629736 0.0629736 2 2 3
0.050873 0.0620932 0.0620932 2 2 3
0.0506291 0.0612224 0.0612224 2 2 3
0.050394 0.0603607 0.0603607 2 2 3
0.0501672 0.0595076 0.0595076 2 2 3
0.0499484 0.0586627 0.0586627 2 2 3
0.0497375 0.0578256 0.0578256 2 2 3
0.0495341 0.0569959 0.0569959 2 2 3
0.0493379 0.0561732 0.0561732 2 2 3
0.0491488 0.0553571 0.0553571 2 2 3
0.0489665 0.0545472 0.0545472 2 2 3
0.0487907 0.0537432 0.0537432 2 2 3
0.0486213 0.0529446 0.0529446 2 2 3
0.048458 0.0521511 0.0521511 2 2 3
0.0483006 0.0513624 0.0513624 2 2 3
0.0481491 0.050578 0.050578 2 2 3
0.0480031 0.0497977 0.0497977 2 2 3
0.0478625 0.049021 0.049021 2 2 3
0.0477272 0.0482476 0.0482476 2 2 3
0.047597 0.0474771 0.0474771 2 2 3
0.0474718 0.0467092 0.0467092 2 2 3
0.0473513 0.0459436 0.0459436 2 2 3
0.0472356 0.0451797 0.0451797 2 2 3
0.0471243 0.0444174 0.0444174 2 2 3
0.0470176 0.0436561 0.0436561 2 2 3
0.0469151 0.0428955 0.0428955 2 2 3
0.0468168 0.0421352 0.0421352 2 2 3
0.0467225 0.0413747 0.0413747 2 2 3
0.0466322 0.0406137 0.0406137 2 2 3
0.0465458 0.0398516 0.0398516 2 2 3
0.0464632 0.0390881 0.0390881 2 2 3
0.0463842 0.0383227 0.0383227 2 2 3
0.0463088 0.0375547 0.0375547 2 2 3
0.0462369 0.0367838 0.0367838 2 2 3
0.0461685 0.0360093 0.0360093 2 2 3
0.0461033 0.0352306 0.0352306 2 2 3
0.0460414 0.034447 0.034447 2 2 3
0.0459827 0.0336579 0.0336579 2 2 3
0.0459271 0.0328625 0.0328625 2 2 3
0.0458745 0.0320601 0.0320601 2 2 3
0.0458248 0.0312496 0.0312496 2 2 3
0.0457781 0.0304301 0.0304301 2 2 3
0.0457343 0.0296006 0.0296006 2 2 3
0.0456932 0.0287597 0.0287597 2 2 3
0.0456548 0.0279063 0.0279063 2 2 3
0.0456191 0.0270387 0.0270387 2 2 3
0.045586 0.0261553 0.0261553 2 2 3
0.0455555 0.025254 0.025254 2 2 3
0.0455275 0.0243326 0.0243326 2 2 3
0.0455019 0.0233884 0.0233884 2 2 3
0.0454788 0.0224183 0.0224183 2 2 3
0.045458 0.0214184 0.0214184 2 2 3
0.0454396 0.0203841 0.0203841 2 2 3
0.0454234 0.0193098 0.0193098 2 2 3
0.0454095 0.0181883 0.0181883 2 2 3
0.0453978 0.0170102 0.0170102 2 2 3
0.0453882 0.0157633 0.0157633 2 2 3
0.0453808 0.0144304 0.0144304 2 2 3
0.0453755 0.0129869 0.0129869 2 2 3
0.0453722 0.0113947 0.0113947 2 2 3
0.0453709 0.00959028 0.00959028 2 2 3
0.0453735 0.00702002 0.00702002 2 2 3
0.0453758 0.00366928 0.00366928 2 2 3
0.0453771 -0.000213549 -0.000213549 2 2 3
0.0453769 -0.00160286 -0.00160286 2 2 3
0.0453765 -0.00248532 -0.00248532 2 2 3
0.0453759 -0.00386632 -0.00386632 2 2 3
0.0453747 -0.00525828 -0.00525828 2 2 3
0.0453734 -0.00710334 -0.00710334 2 2 3
0.0453728 -0.00925968 -0.00925968 2 2 3
0.0453741 -0.0111507 -0.0111507 2 2 3
0.0453754 -0.013047 -0.013047 2 2 3
0.0453805 -0.0144444 -0.0144444 2 2 3
0.0453879 -0.0157494 -0.0157494 2 2 3
0.0453973 -0.0169849 -0.0169849 2 2 3
0.0454089 -0.0181567 -0.0181567 2 2 3
0.0454228 -0.0192747 -0.0192747 2 2 3
0.0454388 -0.0203471 -0.0203471 2 2 3
0.0454571 -0.0213802 -0.0213802 2 2 3
0.0454778 -0.0223796 -0.0223796 2 2 3
0.0455008 -0.0233495 -0.0233495 2 2 3
0.0455263 -0.0242937 -0.0242937 2 2 3
0.0455542 -0.0252152 -0.0252152 2 2 3
0.0455846 -0.0261167 -0.0261167 2 2 3
0.0456175 -0.0270003 -0.0270003 2 2 3
0.0456531 -0.0278681 -0.0278681 2 2 3
0.0456914 -0.0287218 -0.0287218 2 2 3
0.0457323 -0.0295629 -0.0295629 2 2 3
0.0457761 -0.0303927 -0.0303927 2 2 3
0.0458227 -0.0312124 -0.0312124 2 2 3
0.0458721 -0.0320231 -0.0320231 2 2 3
0.0459246 -0.0328257 -0.0328257 2 2 3
0.0459801 -0.0336213 -0.0336213 2 2 3
0.0460386 -0.0344105 -0.0344105 2 2 3
0.0461004 -0.0351942 -0.0351942 2 2 3
0.0461654 -0.0359731 -0.0359731 2 2 3
0.0462337 -0.0367477 -0.0367477 2 2 3
0.0463055 -0.0375187 -0.0375187 2 2 3
0.0463807 -0.0382867 -0.0382867 2 2 3
0.0464595 -0.0390523 -0.0390523 2 2 3
0.046542 -0.0398158 -0.0398158 2 2 3
0.0466282 -0.0405779 -0.0405779 2 2 3
0.0467183 -0.0413389 -0.0413389 2 2 3
0.0468123 -0.0420993 -0.0420993 2 2 3
0.0469105 -0.0428596 -0.0428596 2 2 3
0.0470127 -0.0436202 -0.0436202 2 2 3
0.0471193 -0.0443814 -0.0443814 2 2 3
0.0472304 -0.0451437 -0.0451437 2 2 3
0.0473459 -0.0459074 -0.0459074 2 2 3
0.0474661 -0.046673 -0.046673 2 2 3
0.0475911 -0.0474408 -0.0474408 2 2 3
0.0477211 -0.0482111 -0.0482111 2 2 3
0.0478562 -0.0489843 -0.0489843 2 2 3
0.0479965 -0.0497608 -0.0497608 2 2 3
0.0481422 -0.050541 -0.050541 2 2 3
0.0482935 -0.0513252 -0.0513252 2 2 3
0.0484506 -0.0521137 -0.0521137 2 2 3
0.0486136 -0.0529069 -0.0529069 2 2 3
0.0487828 -0.0537053 -0.0537053 2 2 3
0.0489583 -0.054509 -0.054509 2 2 3
0.0491403 -0.0553187 -0.0553187 2 2 3
0.0493291 -0.0561345 -0.0561345 2 2 3
0.049525 -0.0569569 -0.0569569 2 2 3
0.0497281 -0.0577862 -0.0577862 2 2 3
0.0499386 -0.058623 -0.058623 2 2 3
0.050157 -0.0594675 -0.0594675 2 2 3
0.0503834 -0.0603202 -0.0603202 2 2 3
0.0506182 -0.0611815 -0.0611815 2 2 3
0.0508617 -0.0620519 -0.0620519 2 2 3
0.0511141 -0.0629318 -0.0629318 2 2 3
0.0513759 -0.0638217 -0.0638217 2 2 3
0.0516475 -0.0647221 -0.0647221 2 2 3
0.0519291 -0.0656334 -0.0656334 2 2 3
0.0522212 -0.0665561 -0.0665561 2 2 3
0.0525243 -0.0674909 -0.0674909 2 2 3
0.0528387 -0.0684382 -0.0684382 2 2 3
0.0531651 -0.0693987 -0.0693987 2 2 3
0.0535038 -0.0703729 -0.0703729 2 2 3
0.0538554 -0.0713614 -0.0713614 2 2 3
0.0542205 -0.072365 -0.072365 2 2 3
0.0545997 -0.0733842 -0.0733842 2 2 3
0.0549936 -0.0744198 -0.0744198 2 2 3
0.0554029 -0.0754726 -0.0754726 2 2 3
0.0558283 -0.0765433 -0.0765433 2 2 3
0.0562707 -0.0776327 -0.0776327 2 2 3
0.0567307 -0.0787417 -0.0787417 2 2 3
0.0572093 -0.0798712 -0.0798712 2 2 3
0.0577075 -0.0810222 -0.0810222 2 2 3
0.0582262 -0.0821956 -0.0821956 2 2 3
0.0587664 -0.0833925 -0.0833925 2 2 3
0.0593293 -0.084614 -0.084614 2 2 3
0.0599162 -0.0858612 -0.0858612 2 2 3
0.0605282 -0.0871355 -0.0871355 2 2 3
0.0611669 -0.0884381 -0.0884381 2 2 3
0.0618337 -0.0897704 -0.0897704 2 2 3
0.0625302 -0.091134 -0.091134 2 2 3
0.0632581 -0.0925302 -0.0925302 2 2 3
0.0640194 -0.0939609 -0.0939609 2 2 3
0.0648159 -0.0954278 -0.0954278 2 2 3
0.06565 -0.0969327 -0.0969327 2 2 3
0.0665239 -0.0984776 -0.0984776 2 2 3
0.0674401 -0.100065 -0.100065 2 2 3
0.0684015 -0.101696 -0.101696 2 2 3
0.0694109 -0.103375 -0.103375 2 2 3
0.0704716 -0.105102 -0.105102 2 2 3
0.0715872 -0.106882 -0.106882 2 2 3
0.0727612 -0.108717 -0.108717 2 2 3
0.073998 -0.11061 -0.11061 2 2 3
0.075302 -0.112565 -0.112565 2 2 3
0.0766781 -0.114585 -0.114585 2 2 3
0.0781315 -0.116673 -0.116673 2 2 3
0.0796681 -0.118835 -0.118835 2 2 3
0.0812942 -0.121073 -0.121073 2 2 3
0.0830165 -0.123393 -0.123393 2 2 3
0.0848426 -0.1258 -0.1258 2 2 3
0.0868928 -0.128389 -0.128389 2 2 3
0.0889596 -0.130988 -0.130988 2 2 3
0.0911569 -0.133689 -0.133689 2 2 3
0.0934948 -0.136498 -0.136498 2 2 3
0.095984 -0.13942 -0.13942 2 2 3
0.0986359 -0.142461 -0.142461 2 2 3
0.101463 -0.145625 -0.145625 2 2 3
0.104476 -0.148919 -0.148919 2 2 3
0.10769 -0.152346 -0.152346 2 2 3
0.111116 -0.155912 -0.155912 2 2 3
0.114766 -0.159617 -0.159617 2 2 3
0.118654 -0.163465 -0.163465 2 2 3
0.122789 -0.167456 -0.167456 2 2 3
0.127181 -0.171587 -0.171587 2 2 3
0.131837 -0.175855 -0.175855 2 2 3
0.136761 -0.180255 -0.180255 2 2 3
0.141956 -0.184778 -0.184778 2 2 3
0.147421 -0.189415 -0.189415 2 2 3
0.153151 -0.194155 -0.194155 2 2 3
0.159139 -0.198984 -0.198984 2 2 3
0.165377 -0.203888 -0.203888 2 2 3
0.171851 -0.208854 -0.208854 2 2 3
0.178548 -0.213867 -0.213867 2 2 3
0.185455 -0.218914 -0.218914 2 2 3
0.192556 -0.223981 -0.223981 2 2 3
0.199835 -0.229058 -0.229058 2 2 3
0.207279 -0.234133 -0.234133 2 2 3
0.214874 -0.239199 -0.239199 2 2 3
0.222605 -0.244246 -0.244246 2 2 3
0.230462 -0.249269 -0.249269 2 2 3
0.238316 -0.254291 -0.254291 2 2 3
0.246406 -0.259257 -0.259257 2 2 3
0.254586 -0.264183 -0.264183 2 2 3
0.262851 -0.269068 -0.269068 2 2 3
0.271194 -0.273909 -0.273909 2 2 3
0.279608 -0.278706 -0.278706 2 2 3
0.288087 -0.283457 -0.283457 2 2 3
0.296627 -0.288162 -0.288162 2 2 3
0.305222 -0.29282 -0.29282 2 2 3
0.313868 -0.297433 -0.297433 2 2 3
0.322562 -0.301999 -0.301999 2 2 3
0.3313 -0.30652 -0.30652 2 2 3
0.340079 -0.310995 -0.310995 2 2 3
0.348897 -0.315425 -0.315425 2 2 3
0.35775 -0.319812 -0.319812 2 2 3
0.366637 -0.324156 -0.324156 2 2 3
0.375556 -0.328456 -0.328456 2 2 3
0.384504 -0.332716 -0.332716 2 2 3
0.393481 -0.336934 -0.336934 2 2 3
0.402484 -0.341112 -0.341112 2 2 3
0.411512 -0.345251 -0.345251 2 2 3
0.420564 -0.349351 -0.349351 2 2 3
0.429639 -0.353414 -0.353414 2 2 3
0.438735 -0.35744 -0.35744 2 2 3
0.447851 -0.361429 -0.361429 2 2 3
0.456987 -0.365384 -0.365384 2 2 3
0.466142 -0.369304 -0.369304 2 2 3
0.475314 -0.37319 -0.37319 2 2 3
0.484503 -0.377043 -0.377043 2 2 3
0.493709 -0.380864 -0.380864 2 2 3
0.50293 -0.384653 -0.384653 2 2 3
0.512166 -0.388412 -0.388412 2 2 3
0.521417 -0.39214 -0.39214 2 2 3
0.530682 -0.395838 -0.395838 2 2 3
0.539959 -0.399507 -0.399507 2 2 3
0.54925 -0.403148 -0.403148 2 2 3
0.558553 -0.406761 -0.406761 2 2 3
0.567868 -0.410347 -0.410347 2 2 3
0.577194 -0.413905 -0.413905 2 2 3
0.586532 -0.417438 -0.417438 2 2 3
0.59588 -0.420945 -0.420945 2 2 3
0.605239 -0.424427 -0.424427 2 2 3
0.614608 -0.427884 -0.427884 2 2 3
0.623987 -0.431317 -0.431317 2 2 3
0.633375 -0.434727 -0.434727 2 2 3
0.642772 -0.438113 -0.438113 2 2 3
0.652178 -0.441476 -0.441476 2 2 3
0.661592 -0.444817 -0.444817 2 2 3
0.671016 -0.448136 -0.448136 2 2 3
0.680447 -0.451433 -0.451433 2 2 3
0.689886 -0.454709 -0.454709 2 2 3
0.699333 -0.457964 -0.457964 2 2 3
