0.236707 0.11 0.11 2 3 2
0.236707 0.11 0.11 2 3 2
0.236707 0.11 0.11 2 3 2
0.236707 0.11 0.11 2 3 2
0.236707 0.11 0.11 2 3 2
0.236707 0.11 0.11 2 3 2
0.236798 0.110037 0.110037 2 3 2
0.236981 0.110111 0.110111 2 3 2
0.237346 0.11026 0.11026 2 3 2
0.238075 0.110556 0.110556 2 3 2
0.239536 0.111146 0.111146 2 3 2
0.242463 0.112319 0.112319 2 3 2
0.248333 0.114636 0.114636 2 3 2
0.257179 0.118041 0.118041 2 3 2
0.26644 0.121505 0.121505 2 3 2
0.275743 0.124888 0.124888 2 3 2
0.285084 0.128195 0.128195 2 3 2
0.29446 0.131431 0.131431 2 3 2
0.303867 0.1346 0.1346 2 3 2
0.313302 0.137705 0.137705 2 3 2
0.322763 0.14075 0.14075 2 3 2
0.332249 0.143739 0.143739 2 3 2
0.341756 0.146673 0.146673 2 3 2
0.351283 0.149556 0.149556 2 3 2
0.360829 0.15239 0.15239 2 3 2
0.370392 0.155178 0.155178 2 3 2
0.379971 0.157921 0.157921 2 3 2
0.389566 0.160621 0.160621 2 3 2
0.399174 0.163281 0.163281 2 3 2
0.408795 0.165901 0.165901 2 3 2
0.418429 0.168484 0.168484 2 3 2
0.428074 0.171032 0.171032 2 3 2
0.43773 0.173544 0.173544 2 3 2
0.447396 0.176024 0.176024 2 3 2
0.457072 0.178471 0.178471 2 3 2
0.466757 0.180888 0.180888 2 3 2
0.476451 0.183275 0.183275 2 3 2
0.486152 0.185633 0.185633 2 3 2
0.495862 0.187964 0.187964 2 3 2
0.505579 0.190268 0.190268 2 3 2
0.515302 0.192546 0.192546 2 3 2
0.525033 0.194799 0.194799 2 3 2
0.534769 0.197027 0.197027 2 3 2
0.544512 0.199232 0.199232 2 3 2
0.554261 0.201414 0.201414 2 3 2
0.564015 0.203574 0.203574 2 3 2
0.573774 0.205713 0.205713 2 3 2
0.583539 0.207831 0.207831 2 3 2
0.593308 0.209928 0.209928 2 3 2
0.603082 0.212006 0.212006 2 3 2
0.612861 0.214064 0.214064 2 3 2
0.622644 0.216104 0.216104 2 3 2
0.632431 0.218125 0.218125 2 3 2
0.642222 0.220129 0.220129 2 3 2
0.652016 0.222116 0.222116 2 3 2
0.661815 0.224085 0.224085 2 3 2
0.671617 0.226038 0.226038 2 3 2
0.681422 0.227976 0.227976 2 3 2
0.691231 0.229897 0.229897 2 3 2
0.701043 0.231803 0.231803 2 3 2
0.710858 0.233694 0.233694 2 3 2
0.720677 0.235571 0.235571 2 3 2
0.730498 0.237434 0.237434 2 3 2
0.740322 0.239282 0.239282 2 3 2
0.750148 0.241117 0.241117 2 3 2
0.759977 0.242938 0.242938 2 3 2
0.769809 0.244746 0.244746 2 3 2
0.779644 0.246542 0.246542 2 3 2
0.78948 0.248325 0.248325 2 3 2
0.799319 0.250096 0.250096 2 3 2
0.809161 0.251854 0.251854 2 3 2
0.819004 0.253601 0.253601 2 3 2
0.82885 0.255337 0.255337 2 3 2
0.838698 0.25706 0.25706 2 3 2
0.848548 0.258773 0.258773 2 3 2
0.8584 0.260475 0.260475 2 3 2
0.868253 0.262166 0.262166 2 3 2
0.878109 0.263847 0.263847 2 3 2
0.887967 0.265518 0.265518 2 3 2
0.897826 0.267178 0.267178 2 3 2
0.907687 0.268828 0.268828 2 3 2
0.91755 0.270469 0.270469 2 3 2
0.927414 0.272099 0.272099 2 3 2
0.93728 0.273721 0.273721 2 3 2
0.947148 0.275333 0.275333 2 3 2
0.957017 0.276936 0.276936 2 3 2
0.966888 0.27853 0.27853 2 3 2
0.97676 0.280115 0.280115 2 3 2
0.986633 0.281692 0.281692 2 3 2
0.012432 0.11 0.11 2 2 3
0.0124321 0.110003 0.110003 2 2 3
0.0124349 0.110024 0.110024 2 2 3
0.0124386 0.110054 0.110054 2 2 3
0.0124461 0.110115 0.110115 2 2 3
0.0124612 0.110235 0.110235 2 2 3
0.0124915 0.110478 0.110478 2 2 3
0.0125524 0.110964 0.110964 2 2 3
0.0126489 0.111731 0.111731 2 2 3
0.0127484 0.112513 0.112513 2 2 3
0.0128504 0.113308 0.113308 2 2 3
0.0129548 0.114116 0.114116 2 2 3
0.0130616 0.114936 0.114936 2 2 3
0.0131709 0.115769 0.115769 2 2 3
0.0132828 0.116614 0.116614 2 2 3
0.0133974 0.117473 0.117473 2 2 3
0.0135148 0.118346 0.118346 2 2 3
0.013635 0.119234 0.119234 2 2 3
0.0137582 0.120135 0.120135 2 2 3
0.0138845 0.121052 0.121052 2 2 3
0.0140139 0.121985 0.121985 2 2 3
0.0141467 0.122933 0.122933 2 2 3
0.014283 0.123899 0.123899 2 2 3
0.0144228 0.124881 0.124881 2 2 3
0.0145664 0.125881 0.125881 2 2 3
0.0147138 0.126899 0.126899 2 2 3
0.0148652 0.127935 0.127935 2 2 3
0.0150208 0.128992 0.128992 2 2 3
0.0151808 0.130068 0.130068 2 2 3
0.0153453 0.131165 0.131165 2 2 3
0.0155145 0.132284 0.132284 2 2 3
0.0156886 0.133425 0.133425 2 2 3
0.0158679 0.134588 0.134588 2 2 3
0.0160525 0.135776 0.135776 2 2 3
0.0162428 0.136989 0.136989 2 2 3
0.0164389 0.138227 0.138227 2 2 3
0.0166411 0.139491 0.139491 2 2 3
0.0168497 0.140784 0.140784 2 2 3
0.017065 0.142104 0.142104 2 2 3
0.0172874 0.143455 0.143455 2 2 3
0.0175171 0.144837 0.144837 2 2 3
0.0177545 0.146251 0.146251 2 2 3
0.018 0.147698 0.147698 2 2 3
0.0182541 0.14918 0.14918 2 2 3
0.0185171 0.150698 0.150698 2 2 3
0.0187895 0.152255 0.152255 2 2 3
0.0190718 0.153851 0.153851 2 2 3
0.0193646 0.155488 0.155488 2 2 3
0.0196684 0.157168 0.157168 2 2 3
0.0199838 0.158893 0.158893 2 2 3
0.0203115 0.160665 0.160665 2 2 3
0.0206522 0.162486 0.162486 2 2 3
0.0210067 0.164358 0.164358 2 2 3
0.0213756 0.166285 0.166285 2 2 3
0.0217601 0.168268 0.168268 2 2 3
0.0221608 0.17031 0.17031 2 2 3
0.022579 0.172414 0.172414 2 2 3
0.0230156 0.174584 0.174584 2 2 3
0.0234719 0.176823 0.176823 2 2 3
0.0239491 0.179133 0.179133 2 2 3
0.0244486 0.18152 0.18152 2 2 3
0.0249719 0.183986 0.183986 2 2 3
0.0255206 0.186537 0.186537 2 2 3
0.0260964 0.189176 0.189176 2 2 3
0.0267014 0.191909 0.191909 2 2 3
0.0273374 0.19474 0.19474 2 2 3
0.0280068 0.197676 0.197676 2 2 3
0.0287119 0.200721 0.200721 2 2 3
0.0294554 0.203882 0.203882 2 2 3
0.0302401 0.207165 0.207165 2 2 3
0.031069 0.210578 0.210578 2 2 3
0.0319455 0.214126 0.214126 2 2 3
0.032873 0.217818 0.217818 2 2 3
0.0338555 0.221661 0.221661 2 2 3
0.034897 0.225663 0.225663 2 2 3
0.036002 0.229832 0.229832 2 2 3
0.0371749 0.234176 0.234176 2 2 3
0.0384207 0.238702 0.238702 2 2 3
0.0397445 0.243419 0.243419 2 2 3
0.0411516 0.248335 0.248335 2 2 3
0.0426475 0.253455 0.253455 2 2 3
0.0442376 0.258787 0.258787 2 2 3
0.0459274 0.264334 0.264334 2 2 3
0.0478272 0.270319 0.270319 2 2 3
0.0497364 0.276306 0.276306 2 2 3
0.0517599 0.282513 0.282513 2 2 3
0.0539019 0.288938 0.288938 2 2 3
0.0561658 0.295576 0.295576 2 2 3
0.0585545 0.302421 0.302421 2 2 3
0.0610698 0.309466 0.309466 2 2 3
0.0637131 0.316699 0.316699 2 2 3
0.0664847 0.32411 0.32411 2 2 3
0.0693842 0.331685 0.331685 2 2 3
0.0724106 0.339411 0.339411 2 2 3
0.0755621 0.347273 0.347273 2 2 3
0.0788364 0.355257 0.355257 2 2 3
0.0822309 0.363349 0.363349 2 2 3
0.0857425 0.371534 0.371534 2 2 3
0.0893682 0.3798 0.3798 2 2 3
0.0931046 0.388134 0.388134 2 2 3
0.0968398 0.396465 0.396465 2 2 3
0.100793 0.404918 0.404918 2 2 3
0.104846 0.413402 0.413402 2 2 3
0.108997 0.421913 0.421913 2 2 3
0.113241 0.430444 0.430444 2 2 3
0.117578 0.438986 0.438986 2 2 3
0.122002 0.447534 0.447534 2 2 3
0.126512 0.456082 0.456082 2 2 3
0.131106 0.464627 0.464627 2 2 3
0.135781 0.473163 0.473163 2 2 3
0.140534 0.481688 0.481688 2 2 3
0.145364 0.490199 0.490199 2 2 3
0.150268 0.498691 0.498691 2 2 3
0.155245 0.507164 0.507164 2 2 3
0.160293 0.515615 0.515615 2 2 3
0.16541 0.524042 0.524042 2 2 3
0.170594 0.532444 0.532444 2 2 3
0.175844 0.54082 0.54082 2 2 3
0.181157 0.549168 0.549168 2 2 3
0.186534 0.557487 0.557487 2 2 3
0.191972 0.565776 0.565776 2 2 3
0.19747 0.574035 0.574035 2 2 3
0.203026 0.582263 0.582263 2 2 3
0.20864 0.59046 0.59046 2 2 3
0.214311 0.598625 0.598625 2 2 3
0.220036 0.606757 0.606757 2 2 3
0.225815 0.614857 0.614857 2 2 3
0.231647 0.622924 0.622924 2 2 3
0.23753 0.630958 0.630958 2 2 3
0.243464 0.638959 0.638959 2 2 3
0.249448 0.646927 0.646927 2 2 3
0.255481 0.654861 0.654861 2 2 3
0.261561 0.662762 0.662762 2 2 3
0.267688 0.67063 0.67063 2 2 3
0.273861 0.678465 0.678465 2 2 3
0.280079 0.686266 0.686266 2 2 3
0.286342 0.694034 0.694034 2 2 3
0.292647 0.701769 0.701769 2 2 3
0.298995 0.709471 0.709471 2 2 3
0.305385 0.71714 0.71714 2 2 3
0.311816 0.724777 0.724777 2 2 3
0.318288 0.732381 0.732381 2 2 3
0.324798 0.739952 0.739952 2 2 3
0.331348 0.747491 0.747491 2 2 3
0.337936 0.754999 0.754999 2 2 3
0.344561 0.762474 0.762474 2 2 3
0.351222 0.769917 0.769917 2 2 3
0.35792 0.777329 0.777329 2 2 3
0.364654 0.78471 0.78471 2 2 3
0.371422 0.79206 0.79206 2 2 3
0.378224 0.799378 0.799378 2 2 3
0.38506 0.806666 0.806666 2 2 3
0.391929 0.813924 0.813924 2 2 3
0.398831 0.821151 0.821151 2 2 3
0.405764 0.828348 0.828348 2 2 3
0.412729 0.835515 0.835515 2 2 3
0.419725 0.842653 0.842653 2 2 3
0.426751 0.849761 0.849761 2 2 3
0.433807 0.85684 0.85684 2 2 3
0.440892 0.86389 0.86389 2 2 3
0.448006 0.870912 0.870912 2 2 3
0.455149 0.877905 0.877905 2 2 3
0.462319 0.884869 0.884869 2 2 3
0.469517 0.891806 0.891806 2 2 3
0.476741 0.898715 0.898715 2 2 3
0.483993 0.905596 0.905596 2 2 3
0.49127 0.91245 0.91245 2 2 3
0.498573 0.919277 0.919277 2 2 3
0.505902 0.926077 0.926077 2 2 3
0.513255 0.93285 0.93285 2 2 3
0.520633 0.939596 0.939596 2 2 3
0.528035 0.946316 0.946316 2 2 3
0.535461 0.953011 0.953011 2 2 3
0.54291 0.959679 0.959679 2 2 3
0.550382 0.966322 0.966322 2 2 3
0.557876 0.972939 0.972939 2 2 3
0.565393 0.979531 0.979531 2 2 3
0.572932 0.986098 0.986098 2 2 3
0.580493 0.992641 0.992641 2 2 3
0.588075 0.999159 0.999159 2 2 3
0.595678 1.00565 1.00565 2 2 3
0.603302 1.01212 1.01212 2 2 3
0.610946 1.01857 1.01857 2 2 3
0.61861 1.02499 1.02499 2 2 3
0.626293 1.03139 1.03139 2 2 3
0.633997 1.03776 1.03776 2 2 3
0.641719 1.04411 1.04411 2 2 3
0.64946 1.05044 1.05044 2 2 3
0.657221 1.05675 1.05675 2 2 3
0.664999 1.06303 1.06303 2 2 3
0.672795 1.06929 1.06929 2 2 3
0.68061 1.07553 1.07553 2 2 3
0.688442 1.08174 1.08174 2 2 3
0.696291 1.08794 1.08794 2 2 3
0.704157 1.09411 1.09411 2 2 3
0.712041 1.10026 1.10026 2 2 3
0.719941 1.10639 1.10639 2 2 3
0.727857 1.1125 1.1125 2 2 3
0.73579 1.11859 1.11859 2 2 3
0.743738 1.12466 1.12466 2 2 3
0.751702 1.1307 1.1307 2 2 3
0.759682 1.13673 1.13673 2 2 3
0.767677 1.14273 1.14273 2 2 3
0.775687 1.14872 1.14872 2 2 3
0.783712 1.15469 1.15469 2 2 3
0.791752 1.16063 1.16063 2 2 3
0.799806 1.16656 1.16656 2 2 3
0.807875 1.17246 1.17246 2 2 3
0.815958 1.17835 1.17835 2 2 3
0.824054 1.18422 1.18422 2 2 3
0.832165 1.19007 1.19007 2 2 3
0.840289 1.1959 1.1959 2 2 3
0.848427 1.20171 1.20171 2 2 3
0.856577 1.2075 1.2075 2 2 3
0.864741 1.21328 1.21328 2 2 3
0.872918 1.21903 1.21903 2 2 3
0.881107 1.22477 1.22477 2 2 3
0.88931 1.23049 1.23049 2 2 3
0.897524 1.23619 1.23619 2 2 3
0.905751 1.24188 1.24188 2 2 3
0.91399 1.24755 1.24755 2 2 3
0.922241 1.25319 1.25319 2 2 3
0.930504 1.25883 1.25883 2 2 3
0.938778 1.26444 1.26444 2 2 3
0.947064 1.27004 1.27004 2 2 3
0.955361 1.27562 1.27562 2 2 3
0.96367 1.28118 1.28118 2 2 3
0.97199 1.28673 1.28673 2 2 3
0.980321 1.29226 1.29226 2 2 3
0.988662 1.29778 1.29778 2 2 3
0.997015 1.30328 1.30328 2 2 3
1.00538 1.30876 1.30876 2 2 3
0.144503 0.11 0.11 2 3 3
0.144503 0.110034 0.110034 2 3 3
0.236707 0.110034 0.110034 2 4 2
0.236707 0.110034 0.110034 2 4 2
0.236707 0.110034 0.110034 2 4 2
0.236707 0.110034 0.110034 2 4 2
0.236707 0.110034 0.110034 2 4 2
0.236707 0.11 0.11 2 4 2
0.236616 0.109963 0.109963 2 4 2
0.236434 0.109889 0.109889 2 4 2
0.236069 0.10974 0.10974 2 4 2
0.23534 0.109442 0.109442 2 4 2
0.233884 0.108845 0.108845 2 4 2
0.230976 0.107642 0.107642 2 4 2
0.22518 0.105203 0.105203 2 4 2
0.216542 0.101461 0.101461 2 4 2
0.207624 0.0974465 0.0974465 2 4 2
0.198799 0.0933053 0.0933053 2 4 2
0.190083 0.0890268 0.0890268 2 4 2
0.181492 0.0845996 0.0845996 2 4 2
0.173049 0.0800108 0.0800108 2 4 2
0.164779 0.0752466 0.0752466 2 4 2
0.156715 0.0702916 0.0702916 2 4 2
0.148896 0.0651291 0.0651291 2 4 2
0.14137 0.0597407 0.0597407 2 4 2
0.134194 0.054106 0.054106 2 4 2
0.127436 0.0482011 0.0482011 2 4 2
0.121177 0.0419947 0.0419947 2 4 2
0.115502 0.0354391 0.0354391 2 4 2
0.110514 0.0284489 0.0284489 2 4 2
0.106335 0.0208572 0.0208572 2 4 2
0.103179 0.0123374 0.0123374 2 4 2
0.101544 0.0024047 0.0024047 2 4 2
0.102282 -0.00847789 -0.00847789 2 4 2
0.105066 -0.0179248 -0.0179248 2 4 2
0.108962 -0.0258921 -0.0258921 2 4 2
0.1137 -0.0330846 -0.0330846 2 4 2
0.119155 -0.0397834 -0.0397834 2 4 2
0.125228 -0.0461068 -0.0461068 2 4 2
0.131827 -0.0521141 -0.0521141 2 4 2
0.138871 -0.0578409 -0.0578409 2 4 2
0.146287 -0.0633131 -0.0633131 2 4 2
0.154014 -0.0685522 -0.0685522 2 4 2
0.162001 -0.0735773 -0.0735773 2 4 2
0.170206 -0.0784057 -0.0784057 2 4 2
0.178595 -0.0830533 -0.0830533 2 4 2
0.187138 -0.0875346 -0.0875346 2 4 2
0.195815 -0.0918629 -0.0918629 2 4 2
0.204605 -0.0960499 -0.0960499 2 4 2
0.213493 -0.100106 -0.100106 2 4 2
0.222467 -0.104042 -0.104042 2 4 2
0.231516 -0.107866 -0.107866 2 4 2
0.012432 0.11 0.11 2 2 3
0.0124284 0.109973 0.109973 2 2 3
0.0124273 0.109964 0.109964 2 2 3
0.0124236 0.109934 0.109934 2 2 3
0.0124161 0.109874 0.109874 2 2 3
0.0124011 0.109753 0.109753 2 2 3
0.0123712 0.109513 0.109513 2 2 3
0.0123119 0.109035 0.109035 2 2 3
0.0122205 0.108295 0.108295 2 2 3
0.0121317 0.107569 0.107569 2 2 3
0.0120451 0.106854 0.106854 2 2 3
0.0119603 0.106149 0.106149 2 2 3
0.0118772 0.105454 0.105454 2 2 3
0.0117958 0.104767 0.104767 2 2 3
0.011716 0.104089 0.104089 2 2 3
0.0116378 0.10342 0.10342 2 2 3
0.0115611 0.10276 0.10276 2 2 3
0.0114859 0.102108 0.102108 2 2 3
0.0114122 0.101463 0.101463 2 2 3
0.0113399 0.100827 0.100827 2 2 3
0.011269 0.100198 0.100198 2 2 3
0.0111994 0.099577 0.099577 2 2 3
0.0111311 0.0989631 0.0989631 2 2 3
0.011064 0.0983564 0.0983564 2 2 3
0.0109982 0.0977568 0.0977568 2 2 3
0.0109336 0.0971639 0.0971639 2 2 3
0.0108702 0.0965778 0.0965778 2 2 3
0.0108079 0.0959982 0.0959982 2 2 3
0.0107467 0.095425 0.095425 2 2 3
0.0106865 0.0948581 0.0948581 2 2 3
0.0106275 0.0942974 0.0942974 2 2 3
0.0105694 0.0937426 0.0937426 2 2 3
0.0105124 0.0931937 0.0931937 2 2 3
0.0104563 0.0926506 0.0926506 2 2 3
0.0104012 0.0921131 0.0921131 2 2 3
0.010347 0.0915811 0.0915811 2 2 3
0.0102937 0.0910545 0.0910545 2 2 3
0.0102413 0.0905332 0.0905332 2 2 3
0.0101898 0.0900171 0.0900171 2 2 3
0.0101391 0.0895061 0.0895061 2 2 3
0.0100892 0.0890001 0.0890001 2 2 3
0.0100402 0.0884989 0.0884989 2 2 3
0.0099919 0.0880025 0.0880025 2 2 3
0.00994438 0.0875108 0.0875108 2 2 3
0.00989762 0.0870237 0.0870237 2 2 3
0.00985159 0.0865411 0.0865411 2 2 3
0.00980628 0.0860629 0.0860629 2 2 3
0.00976167 0.0855891 0.0855891 2 2 3
0.00971775 0.0851195 0.0851195 2 2 3
0.00967449 0.0846541 0.0846541 2 2 3
0.0096319 0.0841927 0.0841927 2 2 3
0.00958994 0.0837354 0.0837354 2 2 3
0.00954861 0.0832821 0.0832821 2 2 3
0.0095079 0.0828325 0.0828325 2 2 3
0.00946779 0.0823868 0.0823868 2 2 3
0.00942827 0.0819449 0.0819449 2 2 3
0.00938933 0.0815065 0.0815065 2 2 3
0.00935095 0.0810718 0.0810718 2 2 3
0.00931312 0.0806406 0.0806406 2 2 3
0.00927584 0.0802128 0.0802128 2 2 3
0.00923909 0.0797885 0.0797885 2 2 3
0.00920286 0.0793675 0.0793675 2 2 3
0.00916714 0.0789497 0.0789497 2 2 3
0.00913192 0.0785352 0.0785352 2 2 3
0.00909719 0.0781239 0.0781239 2 2 3
0.00906295 0.0777157 0.0777157 2 2 3
0.00902917 0.0773105 0.0773105 2 2 3
0.00899585 0.0769083 0.0769083 2 2 3
0.00896299 0.0765091 0.0765091 2 2 3
0.00893058 0.0761127 0.0761127 2 2 3
0.0088986 0.0757193 0.0757193 2 2 3
0.00886705 0.0753286 0.0753286 2 2 3
0.00883592 0.0749406 0.0749406 2 2 3
0.0088052 0.0745554 0.0745554 2 2 3
0.00877488 0.0741729 0.0741729 2 2 3
0.00874497 0.0737929 0.0737929 2 2 3
0.00871544 0.0734155 0.0734155 2 2 3
0.0086863 0.0730407 0.0730407 2 2 3
0.00865753 0.0726683 0.0726683 2 2 3
0.00862913 0.0722984 0.0722984 2 2 3
0.0086011 0.0719308 0.0719308 2 2 3
0.00857342 0.0715657 0.0715657 2 2 3
0.00854609 0.0712028 0.0712028 2 2 3
0.0085191 0.0708423 0.0708423 2 2 3
0.00849246 0.070484 0.070484 2 2 3
0.00846614 0.0701279 0.0701279 2 2 3
0.00844015 0.0697739 0.0697739 2 2 3
0.00841448 0.0694221 0.0694221 2 2 3
0.00838913 0.0690724 0.0690724 2 2 3
0.00836409 0.0687248 0.0687248 2 2 3
0.00833935 0.0683792 0.0683792 2 2 3
0.00831491 0.0680356 0.0680356 2 2 3
0.00829077 0.067694 0.067694 2 2 3
0.00826692 0.0673543 0.0673543 2 2 3
0.00824335 0.0670165 0.0670165 2 2 3
0.00822006 0.0666806 0.0666806 2 2 3
0.00819705 0.0663466 0.0663466 2 2 3
0.00817431 0.0660143 0.0660143 2 2 3
0.00815183 0.0656838 0.0656838 2 2 3
0.00812962 0.0653551 0.0653551 2 2 3
0.00810767 0.0650281 0.0650281 2 2 3
0.00808597 0.0647028 0.0647028 2 2 3
0.00806452 0.0643792 0.0643792 2 2 3
0.00804332 0.0640572 0.0640572 2 2 3
0.00802236 0.0637368 0.0637368 2 2 3
0.00800164 0.063418 0.063418 2 2 3
0.00798115 0.0631008 0.0631008 2 2 3
0.0079609 0.0627851 0.0627851 2 2 3
0.00794087 0.0624709 0.0624709 2 2 3
0.00792107 0.0621583 0.0621583 2 2 3
0.00790149 0.061847 0.061847 2 2 3
0.00788213 0.0615372 0.0615372 2 2 3
0.00786299 0.0612289 0.0612289 2 2 3
0.00784405 0.0609219 0.0609219 2 2 3
0.00782532 0.0606162 0.0606162 2 2 3
0.0078068 0.060312 0.060312 2 2 3
0.00778848 0.060009 0.060009 2 2 3
0.00777036 0.0597074 0.0597074 2 2 3
0.00775244 0.059407 0.059407 2 2 3
0.00773471 0.0591078 0.0591078 2 2 3
0.00771717 0.0588099 0.0588099 2 2 3
0.00769981 0.0585133 0.0585133 2 2 3
0.00768265 0.0582178 0.0582178 2 2 3
0.00766566 0.0579235 0.0579235 2 2 3
0.00764886 0.0576303 0.0576303 2 2 3
0.00763223 0.0573383 0.0573383 2 2 3
0.00761578 0.0570473 0.0570473 2 2 3
0.0075995 0.0567575 0.0567575 2 2 3
0.0075834 0.0564687 0.0564687 2 2 3
0.00756746 0.056181 0.056181 2 2 3
0.00755168 0.0558943 0.0558943 2 2 3
0.00753607 0.0556086 0.0556086 2 2 3
0.00752062 0.055324 0.055324 2 2 3
0.00750533 0.0550403 0.0550403 2 2 3
0.00749019 0.0547575 0.0547575 2 2 3
0.00747522 0.0544757 0.0544757 2 2 3
0.00746039 0.0541948 0.0541948 2 2 3
0.00744571 0.0539148 0.0539148 2 2 3
0.00743119 0.0536357 0.0536357 2 2 3
0.00741681 0.0533575 0.0533575 2 2 3
0.00740257 0.0530801 0.0530801 2 2 3
0.00738848 0.0528036 0.0528036 2 2 3
0.00737453 0.0525278 0.0525278 2 2 3
0.00736071 0.0522529 0.0522529 2 2 3
0.00734704 0.0519787 0.0519787 2 2 3
0.0073335 0.0517053 0.0517053 2 2 3
0.00732009 0.0514327 0.0514327 2 2 3
0.00730682 0.0511608 0.0511608 2 2 3
0.00729368 0.0508896 0.0508896 2 2 3
0.00728066 0.0506191 0.0506191 2 2 3
0.00726778 0.0503492 0.0503492 2 2 3
0.00725502 0.0500801 0.0500801 2 2 3
0.00724238 0.0498116 0.0498116 2 2 3
0.00722987 0.0495437 0.0495437 2 2 3
0.00721748 0.0492764 0.0492764 2 2 3
0.0072052 0.0490098 0.0490098 2 2 3
0.00719305 0.0487437 0.0487437 2 2 3
0.00718101 0.0484782 0.0484782 2 2 3
0.00716909 0.0482132 0.0482132 2 2 3
0.00715728 0.0479488 0.0479488 2 2 3
0.00714558 0.0476849 0.0476849 2 2 3
0.007134 0.0474215 0.0474215 2 2 3
0.00712253 0.0471586 0.0471586 2 2 3
0.00711116 0.0468962 0.0468962 2 2 3
0.0070999 0.0466342 0.0466342 2 2 3
0.00708875 0.0463727 0.0463727 2 2 3
0.0070777 0.0461116 0.0461116 2 2 3
0.00706676 0.0458509 0.0458509 2 2 3
0.00705591 0.0455906 0.0455906 2 2 3
0.00704517 0.0453306 0.0453306 2 2 3
0.00703453 0.0450711 0.0450711 2 2 3
0.00702399 0.0448119 0.0448119 2 2 3
0.00701355 0.044553 0.044553 2 2 3
0.0070032 0.0442944 0.0442944 2 2 3
0.00699295 0.0440362 0.0440362 2 2 3
0.00698279 0.0437782 0.0437782 2 2 3
0.00697273 0.0435205 0.0435205 2 2 3
0.00696276 0.043263 0.043263 2 2 3
0.00695288 0.0430058 0.0430058 2 2 3
0.00694309 0.0427488 0.0427488 2 2 3
0.00693339 0.042492 0.042492 2 2 3
0.00692378 0.0422354 0.0422354 2 2 3
0.00691426 0.0419789 0.0419789 2 2 3
0.00690482 0.0417226 0.0417226 2 2 3
0.00689547 0.0414665 0.0414665 2 2 3
0.0068862 0.0412104 0.0412104 2 2 3
0.00687702 0.0409545 0.0409545 2 2 3
0.00686791 0.0406987 0.0406987 2 2 3
0.0068589 0.0404429 0.0404429 2 2 3
0.00684996 0.0401871 0.0401871 2 2 3
0.0068411 0.0399314 0.0399314 2 2 3
0.00683232 0.0396758 0.0396758 2 2 3
0.00682362 0.0394201 0.0394201 2 2 3
0.006815 0.0391644 0.0391644 2 2 3
0.00680645 0.0389086 0.0389086 2 2 3
0.00679798 0.0386528 0.0386528 2 2 3
0.00678959 0.0383969 0.0383969 2 2 3
0.00678127 0.0381409 0.0381409 2 2 3
0.00677302 0.0378848 0.0378848 2 2 3
0.00676485 0.0376286 0.0376286 2 2 3
0.00675675 0.0373722 0.0373722 2 2 3
0.00674872 0.0371156 0.0371156 2 2 3
0.00674076 0.0368588 0.0368588 2 2 3
0.00673287 0.0366018 0.0366018 2 2 3
0.00672506 0.0363446 0.0363446 2 2 3
0.0067173 0.0360871 0.0360871 2 2 3
0.00670962 0.0358293 0.0358293 2 2 3
0.00670201 0.0355712 0.0355712 2 2 3
0.00669446 0.0353128 0.0353128 2 2 3
0.00668698 0.035054 0.035054 2 2 3
0.00667956 0.0347949 0.0347949 2 2 3
0.00667221 0.0345353 0.0345353 2 2 3
0.00666492 0.0342753 0.0342753 2 2 3
0.00665769 0.0340149 0.0340149 2 2 3
0.00665053 0.0337539 0.0337539 2 2 3
0.00664343 0.0334925 0.0334925 2 2 3
0.00663639 0.0332305 0.0332305 2 2 3
0.00662941 0.032968 0.032968 2 2 3
0.0066225 0.0327049 0.0327049 2 2 3
0.00661564 0.0324411 0.0324411 2 2 3
0.00660884 0.0321767 0.0321767 2 2 3
0.0066021 0.0319116 0.0319116 2 2 3
0.00659542 0.0316458 0.0316458 2 2 3
0.0065888 0.0313792 0.0313792 2 2 3
0.00658223 0.0311119 0.0311119 2 2 3
0.00657572 0.0308437 0.0308437 2 2 3
0.00656927 0.0305747 0.0305747 2 2 3
0.00656287 0.0303047 0.0303047 2 2 3
0.00655653 0.0300339 0.0300339 2 2 3
0.00655024 0.029762 0.029762 2 2 3
0.00654401 0.0294892 0.0294892 2 2 3
0.00653783 0.0292152 0.0292152 2 2 3
0.0065317 0.0289402 0.0289402 2 2 3
0.00652562 0.028664 0.028664 2 2 3
0.0065196 0.0283867 0.0283867 2 2 3
0.00651363 0.028108 0.028108 2 2 3
0.00650771 0.0278281 0.0278281 2 2 3
0.00650184 0.0275468 0.0275468 2 2 3
0.00649602 0.0272641 0.0272641 2 2 3
0.00649025 0.0269799 0.0269799 2 2 3
0.00648453 0.0266942 0.0266942 2 2 3
0.00647886 0.0264069 0.0264069 2 2 3
0.00647324 0.0261179 0.0261179 2 2 3
0.00646766 0.0258272 0.0258272 2 2 3
0.00646214 0.0255347 0.0255347 2 2 3
0.00645666 0.0252403 0.0252403 2 2 3
0.00645122 0.024944 0.024944 2 2 3
0.00644584 0.0246456 0.0246456 2 2 3
0.0064405 0.024345 0.024345 2 2 3
0.0064352 0.0240422 0.0240422 2 2 3
0.00642996 0.0237371 0.0237371 2 2 3
0.00642475 0.0234295 0.0234295 2 2 3
0.00641959 0.0231194 0.0231194 2 2 3
0.00641448 0.0228066 0.0228066 2 2 3
0.00640941 0.022491 0.022491 2 2 3
0.00640438 0.0221725 0.0221725 2 2 3
0.00639939 0.0218509 0.0218509 2 2 3
0.00639445 0.0215261 0.0215261 2 2 3
0.00638955 0.0211979 0.0211979 2 2 3
0.0063847 0.0208661 0.0208661 2 2 3
0.00637988 0.0205306 0.0205306 2 2 3
0.00637511 0.0201911 0.0201911 2 2 3
0.00637037 0.0198475 0.0198475 2 2 3
0.00636568 0.0194995 0.0194995 2 2 3
0.00636103 0.0191468 0.0191468 2 2 3
0.00635642 0.0187892 0.0187892 2 2 3
0.00635184 0.0184263 0.0184263 2 2 3
0.00634731 0.0180579 0.0180579 2 2 3
0.00634282 0.0176836 0.0176836 2 2 3
0.00633836 0.017303 0.017303 2 2 3
0.00633395 0.0169156 0.0169156 2 2 3
0.00632957 0.0165209 0.0165209 2 2 3
0.00632523 0.0161185 0.0161185 2 2 3
0.00632093 0.0157077 0.0157077 2 2 3
0.00631667 0.0152878 0.0152878 2 2 3
0.00631244 0.014858 0.014858 2 2 3
0.00630825 0.0144174 0.0144174 2 2 3
0.00630409 0.0139651 0.0139651 2 2 3
0.00629998 0.0134998 0.0134998 2 2 3
0.0062959 0.0130202 0.0130202 2 2 3
0.00629185 0.0125245 0.0125245 2 2 3
0.00628784 0.0120109 0.0120109 2 2 3
0.00628387 0.011477 0.011477 2 2 3
0.00627993 0.0109198 0.0109198 2 2 3
0.00627602 0.0103357 0.0103357 2 2 3
0.00627215 0.00971989 0.00971989 2 2 3
0.00626832 0.00906625 0.00906625 2 2 3
0.00626452 0.00836631 0.00836631 2 2 3
0.00626076 0.00760806 0.00760806 2 2 3
0.00625703 0.00677347 0.00677347 2 2 3
0.00625334 0.00583341 0.00583341 2 2 3
0.00624968 0.00473522 0.00473522 2 2 3
0.00624607 0.00336568 0.00336568 2 2 3
0.00624432 0.00217562 0.00217562 2 2 3
0.00624348 0.00110119 0.00110119 2 2 3
0.00624352 -0.0011765 -0.0011765 2 2 3
0.00624433 -0.0017129 -0.0017129 2 2 3
0.00624486 -0.00246947 -0.00246947 2 2 3
0.00624628 -0.00348498 -0.00348498 2 2 3
0.00624924 -0.00496411 -0.00496411 2 2 3
0.00625289 -0.00602795 -0.00602795 2 2 3
0.00625659 -0.00679216 -0.00679216 2 2 3
0.00626032 -0.00756776 -0.00756776 2 2 3
0.00626408 -0.0083161 -0.0083161 2 2 3
0.00626787 -0.00901054 -0.00901054 2 2 3
0.0062717 -0.00966181 -0.00966181 2 2 3
0.00627557 -0.0102771 -0.0102771 2 2 3
0.00627947 -0.0108617 -0.0108617 2 2 3
0.0062834 -0.0114198 -0.0114198 2 2 3
0.00628737 -0.0119549 -0.0119549 2 2 3
0.00629138 -0.0124697 -0.0124697 2 2 3
0.00629542 -0.0129665 -0.0129665 2 2 3
0.00629949 -0.0134473 -0.0134473 2 2 3
0.00630361 -0.0139137 -0.0139137 2 2 3
0.00630776 -0.0143671 -0.0143671 2 2 3
0.00631194 -0.0148087 -0.0148087 2 2 3
0.00631617 -0.0152394 -0.0152394 2 2 3
0.00632043 -0.0156603 -0.0156603 2 2 3
0.00632472 -0.0160719 -0.0160719 2 2 3
0.00632906 -0.0164752 -0.0164752 2 2 3
0.00633343 -0.0168706 -0.0168706 2 2 3
0.00633784 -0.0172587 -0.0172587 2 2 3
0.00634229 -0.01764 -0.01764 2 2 3
0.00634678 -0.018015 -0.018015 2 2 3
0.00635131 -0.018384 -0.018384 2 2 3
0.00635588 -0.0187474 -0.0187474 2 2 3
0.00636048 -0.0191055 -0.0191055 2 2 3
0.00636513 -0.0194587 -0.0194587 2 2 3
0.00636982 -0.0198073 -0.0198073 2 2 3
0.00637455 -0.0201514 -0.0201514 2 2 3
0.00637932 -0.0204913 -0.0204913 2 2 3
0.00638413 -0.0208272 -0.0208272 2 2 3
0.00638898 -0.0211594 -0.0211594 2 2 3
0.00639387 -0.021488 -0.021488 2 2 3
0.00639881 -0.0218131 -0.0218131 2 2 3
0.00640379 -0.0221351 -0.0221351 2 2 3
0.00640881 -0.0224539 -0.0224539 2 2 3
0.00641388 -0.0227698 -0.0227698 2 2 3
0.00641899 -0.0230829 -0.0230829 2 2 3
0.00642414 -0.0233934 -0.0233934 2 2 3
0.00642934 -0.0237012 -0.0237012 2 2 3
0.00643458 -0.0240066 -0.0240066 2 2 3
0.00643987 -0.0243097 -0.0243097 2 2 3
0.00644521 -0.0246105 -0.0246105 2 2 3
0.00645059 -0.0249091 -0.0249091 2 2 3
0.00645601 -0.0252057 -0.0252057 2 2 3
0.00646149 -0.0255003 -0.0255003 2 2 3
0.00646701 -0.0257931 -0.0257931 2 2 3
0.00647258 -0.026084 -0.026084 2 2 3
0.00647819 -0.0263731 -0.0263731 2 2 3
0.00648386 -0.0266606 -0.0266606 2 2 3
0.00648957 -0.0269465 -0.0269465 2 2 3
0.00649534 -0.0272308 -0.0272308 2 2 3
0.00650115 -0.0275137 -0.0275137 2 2 3
0.00650701 -0.0277952 -0.0277952 2 2 3
0.00651293 -0.0280752 -0.0280752 2 2 3
0.00651889 -0.028354 -0.028354 2 2 3
0.00652491 -0.0286315 -0.0286315 2 2 3
0.00653098 -0.0289079 -0.0289079 2 2 3
0.0065371 -0.029183 -0.029183 2 2 3
0.00654328 -0.0294571 -0.0294571 2 2 3
0.0065495 -0.02973 -0.02973 2 2 3
0.00655579 -0.030002 -0.030002 2 2 3
0.00656212 -0.030273 -0.030273 2 2 3
0.00656851 -0.030543 -0.030543 2 2 3
0.00657496 -0.0308121 -0.0308121 2 2 3
0.00658146 -0.0310804 -0.0310804 2 2 3
0.00658802 -0.0313479 -0.0313479 2 2 3
0.00659464 -0.0316145 -0.0316145 2 2 3
0.00660131 -0.0318804 -0.0318804 2 2 3
0.00660805 -0.0321456 -0.0321456 2 2 3
0.00661484 -0.0324101 -0.0324101 2 2 3
0.00662169 -0.0326739 -0.0326739 2 2 3
0.0066286 -0.0329371 -0.0329371 2 2 3
0.00663557 -0.0331997 -0.0331997 2 2 3
0.0066426 -0.0334618 -0.0334618 2 2 3
0.00664969 -0.0337232 -0.0337232 2 2 3
0.00665685 -0.0339842 -0.0339842 2 2 3
0.00666407 -0.0342447 -0.0342447 2 2 3
0.00667135 -0.0345048 -0.0345048 2 2 3
0.00667869 -0.0347644 -0.0347644 2 2 3
0.0066861 -0.0350236 -0.0350236 2 2 3
0.00669358 -0.0352824 -0.0352824 2 2 3
0.00670112 -0.0355409 -0.0355409 2 2 3
0.00670872 -0.035799 -0.035799 2 2 3
0.0067164 -0.0360568 -0.0360568 2 2 3
0.00672414 -0.0363144 -0.0363144 2 2 3
0.00673195 -0.0365716 -0.0365716 2 2 3
0.00673983 -0.0368286 -0.0368286 2 2 3
0.00674778 -0.0370854 -0.0370854 2 2 3
0.0067558 -0.037342 -0.037342 2 2 3
0.0067639 -0.0375984 -0.0375984 2 2 3
0.00677206 -0.0378547 -0.0378547 2 2 3
0.0067803 -0.0381108 -0.0381108 2 2 3
0.00678861 -0.0383668 -0.0383668 2 2 3
0.00679699 -0.0386227 -0.0386227 2 2 3
0.00680545 -0.0388785 -0.0388785 2 2 3
0.00681399 -0.0391343 -0.0391343 2 2 3
0.0068226 -0.03939 -0.03939 2 2 3
0.00683129 -0.0396457 -0.0396457 2 2 3
0.00684006 -0.0399014 -0.0399014 2 2 3
0.00684891 -0.0401571 -0.0401571 2 2 3
0.00685784 -0.0404128 -0.0404128 2 2 3
0.00686685 -0.0406686 -0.0406686 2 2 3
0.00687594 -0.0409244 -0.0409244 2 2 3
0.00688512 -0.0411803 -0.0411803 2 2 3
0.00689437 -0.0414364 -0.0414364 2 2 3
0.00690372 -0.0416925 -0.0416925 2 2 3
0.00691314 -0.0419488 -0.0419488 2 2 3
0.00692266 -0.0422052 -0.0422052 2 2 3
0.00693226 -0.0424618 -0.0424618 2 2 3
0.00694195 -0.0427186 -0.0427186 2 2 3
0.00695173 -0.0429756 -0.0429756 2 2 3
0.00696159 -0.0432328 -0.0432328 2 2 3
0.00697155 -0.0434902 -0.0434902 2 2 3
0.00698161 -0.0437479 -0.0437479 2 2 3
0.00699175 -0.0440058 -0.0440058 2 2 3
0.00700199 -0.044264 -0.044264 2 2 3
0.00701233 -0.0445226 -0.0445226 2 2 3
0.00702276 -0.0447814 -0.0447814 2 2 3
0.00703329 -0.0450406 -0.0450406 2 2 3
0.00704392 -0.0453001 -0.0453001 2 2 3
0.00705465 -0.04556 -0.04556 2 2 3
0.00706548 -0.0458202 -0.0458202 2 2 3
0.00707641 -0.0460809 -0.0460809 2 2 3
0.00708744 -0.0463419 -0.0463419 2 2 3
0.00709859 -0.0466034 -0.0466034 2 2 3
0.00710983 -0.0468653 -0.0468653 2 2 3
0.00712118 -0.0471277 -0.0471277 2 2 3
0.00713265 -0.0473906 -0.0473906 2 2 3
0.00714422 -0.0476539 -0.0476539 2 2 3
0.0071559 -0.0479177 -0.0479177 2 2 3
0.0071677 -0.0481821 -0.0481821 2 2 3
0.0071796 -0.048447 -0.048447 2 2 3
0.00719163 -0.0487124 -0.0487124 2 2 3
0.00720377 -0.0489784 -0.0489784 2 2 3
0.00721603 -0.049245 -0.049245 2 2 3
0.00722841 -0.0495122 -0.0495122 2 2 3
0.00724091 -0.04978 -0.04978 2 2 3
0.00725353 -0.0500485 -0.0500485 2 2 3
0.00726627 -0.0503175 -0.0503175 2 2 3
0.00727914 -0.0505873 -0.0505873 2 2 3
0.00729214 -0.0508577 -0.0508577 2 2 3
0.00730527 -0.0511288 -0.0511288 2 2 3
0.00731853 -0.0514007 -0.0514007 2 2 3
0.00733192 -0.0516732 -0.0516732 2 2 3
0.00734544 -0.0519465 -0.0519465 2 2 3
0.0073591 -0.0522206 -0.0522206 2 2 3
0.0073729 -0.0524954 -0.0524954 2 2 3
0.00738683 -0.0527711 -0.0527711 2 2 3
0.00740091 -0.0530475 -0.0530475 2 2 3
0.00741513 -0.0533248 -0.0533248 2 2 3
0.00742949 -0.053603 -0.053603 2 2 3
0.007444 -0.053882 -0.053882 2 2 3
0.00745866 -0.0541618 -0.0541618 2 2 3
0.00747347 -0.0544426 -0.0544426 2 2 3
0.00748843 -0.0547243 -0.0547243 2 2 3
0.00750354 -0.055007 -0.055007 2 2 3
0.00751882 -0.0552905 -0.0552905 2 2 3
0.00753425 -0.0555751 -0.0555751 2 2 3
0.00754984 -0.0558607 -0.0558607 2 2 3
0.00756559 -0.0561472 -0.0561472 2 2 3
0.00758151 -0.0564348 -0.0564348 2 2 3
0.0075976 -0.0567235 -0.0567235 2 2 3
0.00761386 -0.0570132 -0.0570132 2 2 3
0.00763029 -0.057304 -0.057304 2 2 3
0.0076469 -0.0575959 -0.0575959 2 2 3
0.00766368 -0.0578889 -0.0578889 2 2 3
0.00768064 -0.0581831 -0.0581831 2 2 3
0.00769779 -0.0584785 -0.0584785 2 2 3
0.00771512 -0.058775 -0.058775 2 2 3
0.00773264 -0.0590728 -0.0590728 2 2 3
0.00775034 -0.0593717 -0.0593717 2 2 3
0.00776825 -0.059672 -0.059672 2 2 3
0.00778634 -0.0599735 -0.0599735 2 2 3
0.00780464 -0.0602763 -0.0602763 2 2 3
0.00782314 -0.0605804 -0.0605804 2 2 3
0.00784184 -0.0608859 -0.0608859 2 2 3
0.00786075 -0.0611927 -0.0611927 2 2 3
0.00787987 -0.0615009 -0.0615009 2 2 3
0.00789921 -0.0618105 -0.0618105 2 2 3
0.00791876 -0.0621216 -0.0621216 2 2 3
0.00793854 -0.0624341 -0.0624341 2 2 3
0.00795854 -0.0627481 -0.0627481 2 2 3
0.00797876 -0.0630636 -0.0630636 2 2 3
0.00799922 -0.0633807 -0.0633807 2 2 3
0.00801991 -0.0636993 -0.0636993 2 2 3
0.00804085 -0.0640195 -0.0640195 2 2 3
0.00806202 -0.0643412 -0.0643412 2 2 3
0.00808344 -0.0646647 -0.0646647 2 2 3
0.00810511 -0.0649898 -0.0649898 2 2 3
0.00812703 -0.0653166 -0.0653166 2 2 3
0.00814921 -0.0656451 -0.0656451 2 2 3
0.00817165 -0.0659754 -0.0659754 2 2 3
0.00819436 -0.0663074 -0.0663074 2 2 3
0.00821734 -0.0666413 -0.0666413 2 2 3
0.0082406 -0.066977 -0.066977 2 2 3
0.00826414 -0.0673145 -0.0673145 2 2 3
0.00828796 -0.067654 -0.067654 2 2 3
0.00831207 -0.0679954 -0.0679954 2 2 3
0.00833647 -0.0683387 -0.0683387 2 2 3
0.00836117 -0.0686841 -0.0686841 2 2 3
0.00838618 -0.0690315 -0.0690315 2 2 3
0.00841149 -0.0693809 -0.0693809 2 2 3
0.00843713 -0.0697325 -0.0697325 2 2 3
0.00846308 -0.0700862 -0.0700862 2 2 3
0.00848935 -0.070442 -0.070442 2 2 3
0.00851596 -0.0708001 -0.0708001 2 2 3
0.00854291 -0.0711603 -0.0711603 2 2 3
0.0085702 -0.0715229 -0.0715229 2 2 3
0.00859783 -0.0718878 -0.0718878 2 2 3
0.00862583 -0.0722551 -0.0722551 2 2 3
0.00865418 -0.0726247 -0.0726247 2 2 3
0.00868291 -0.0729968 -0.0729968 2 2 3
0.008712 -0.0733713 -0.0733713 2 2 3
0.00874149 -0.0737484 -0.0737484 2 2 3
0.00877136 -0.0741281 -0.0741281 2 2 3
0.00880162 -0.0745103 -0.0745103 2 2 3
0.00883229 -0.0748952 -0.0748952 2 2 3
0.00886338 -0.0752829 -0.0752829 2 2 3
0.00889488 -0.0756732 -0.0756732 2 2 3
0.00892681 -0.0760664 -0.0760664 2 2 3
0.00895917 -0.0764624 -0.0764624 2 2 3
0.00899198 -0.0768612 -0.0768612 2 2 3
0.00902524 -0.0772631 -0.0772631 2 2 3
0.00905896 -0.0776679 -0.0776679 2 2 3
0.00909316 -0.0780758 -0.0780758 2 2 3
0.00912783 -0.0784868 -0.0784868 2 2 3
0.00916299 -0.0789009 -0.0789009 2 2 3
0.00919865 -0.0793182 -0.0793182 2 2 3
0.00923482 -0.0797389 -0.0797389 2 2 3
0.00927151 -0.0801628 -0.0801628 2 2 3
0.00930873 -0.0805902 -0.0805902 2 2 3
0.00934649 -0.081021 -0.081021 2 2 3
0.0093848 -0.0814553 -0.0814553 2 2 3
0.00942368 -0.0818932 -0.0818932 2 2 3
0.00946313 -0.0823348 -0.0823348 2 2 3
0.00950317 -0.08278 -0.08278 2 2 3
0.00954381 -0.0832291 -0.0832291 2 2 3
0.00958507 -0.083682 -0.083682 2 2 3
0.00962695 -0.0841388 -0.0841388 2 2 3
0.00966947 -0.0845997 -0.0845997 2 2 3
0.00971265 -0.0850646 -0.0850646 2 2 3
0.0097565 -0.0855337 -0.0855337 2 2 3
0.00980103 -0.0860071 -0.0860071 2 2 3
0.00984626 -0.0864847 -0.0864847 2 2 3
0.0098922 -0.0869668 -0.0869668 2 2 3
0.00993888 -0.0874534 -0.0874534 2 2 3
0.0099863 -0.0879446 -0.0879446 2 2 3
0.0100345 -0.0884404 -0.0884404 2 2 3
0.0100835 -0.088941 -0.088941 2 2 3
0.0101332 -0.0894465 -0.0894465 2 2 3
0.0101838 -0.0899569 -0.0899569 2 2 3
0.0102353 -0.0904724 -0.0904724 2 2 3
0.0102876 -0.0909931 -0.0909931 2 2 3
0.0103407 -0.091519 -0.091519 2 2 3
0.0103948 -0.0920504 -0.0920504 2 2 3
0.0104498 -0.0925872 -0.0925872 2 2 3
0.0105058 -0.0931297 -0.0931297 2 2 3
0.0105627 -0.0936779 -0.0936779 2 2 3
0.0106206 -0.094232 -0.094232 2 2 3
0.0106796 -0.0947921 -0.0947921 2 2 3
0.0107396 -0.0953582 -0.0953582 2 2 3
0.0108007 -0.0959307 -0.0959307 2 2 3
0.0108628 -0.0965095 -0.0965095 2 2 3
0.0109261 -0.0970949 -0.0970949 2 2 3
0.0109906 -0.0976869 -0.0976869 2 2 3
0.0110563 -0.0982858 -0.0982858 2 2 3
0.0111232 -0.0988917 -0.0988917 2 2 3
0.0111913 -0.0995047 -0.0995047 2 2 3
0.0112608 -0.100125 -0.100125 2 2 3
0.0113316 -0.100753 -0.100753 2 2 3
0.0114037 -0.101388 -0.101388 2 2 3
0.0114773 -0.102032 -0.102032 2 2 3
0.0115523 -0.102683 -0.102683 2 2 3
0.0116288 -0.103343 -0.103343 2 2 3
0.0117068 -0.104011 -0.104011 2 2 3
0.0117864 -0.104687 -0.104687 2 2 3
0.0118676 -0.105373 -0.105373 2 2 3
0.0119505 -0.106067 -0.106067 2 2 3
0.0120351 -0.106771 -0.106771 2 2 3
0.0121215 -0.107485 -0.107485 2 2 3
0.0122098 -0.108208 -0.108208 2 2 3
0.0122999 -0.108941 -0.108941 2 2 3
0.0123919 -0.109685 -0.109685 2 2 3
0.012486 -0.110439 -0.110439 2 2 3
0.0125822 -0.111204 -0.111204 2 2 3
0.0126805 -0.11198 -0.11198 2 2 3
0.012781 -0.112768 -0.112768 2 2 3
0.0128838 -0.113567 -0.113567 2 2 3
0.012989 -0.114379 -0.114379 2 2 3
0.0130966 -0.115203 -0.115203 2 2 3
0.0132067 -0.11604 -0.11604 2 2 3
0.0133195 -0.11689 -0.11689 2 2 3
0.0134349 -0.117753 -0.117753 2 2 3
0.0135532 -0.118631 -0.118631 2 2 3
0.0136743 -0.119523 -0.119523 2 2 3
0.0137985 -0.120429 -0.120429 2 2 3
0.0139258 -0.121351 -0.121351 2 2 3
0.0140564 -0.122289 -0.122289 2 2 3
0.0141903 -0.123243 -0.123243 2 2 3
0.0143276 -0.124213 -0.124213 2 2 3
0.0144687 -0.125201 -0.125201 2 2 3
0.0146134 -0.126207 -0.126207 2 2 3
0.0147621 -0.127231 -0.127231 2 2 3
0.0149149 -0.128274 -0.128274 2 2 3
0.0150719 -0.129336 -0.129336 2 2 3
0.0152333 -0.130419 -0.130419 2 2 3
0.0153993 -0.131523 -0.131523 2 2 3
0.01557 -0.132649 -0.132649 2 2 3
0.0157458 -0.133797 -0.133797 2 2 3
0.0159268 -0.134969 -0.134969 2 2 3
0.0161132 -0.136164 -0.136164 2 2 3
0.0163053 -0.137385 -0.137385 2 2 3
0.0165034 -0.138631 -0.138631 2 2 3
0.0167076 -0.139905 -0.139905 2 2 3
0.0169183 -0.141206 -0.141206 2 2 3
0.0171359 -0.142536 -0.142536 2 2 3
0.0173606 -0.143897 -0.143897 2 2 3
0.0175927 -0.145289 -0.145289 2 2 3
0.0178327 -0.146713 -0.146713 2 2 3
0.0180809 -0.148172 -0.148172 2 2 3
0.0183378 -0.149665 -0.149665 2 2 3
0.0186038 -0.151196 -0.151196 2 2 3
0.0188793 -0.152765 -0.152765 2 2 3
0.019165 -0.154373 -0.154373 2 2 3
0.0194612 -0.156024 -0.156024 2 2 3
0.0197687 -0.157718 -0.157718 2 2 3
0.020088 -0.159458 -0.159458 2 2 3
0.0204198 -0.161246 -0.161246 2 2 3
0.0207649 -0.163083 -0.163083 2 2 3
0.0211239 -0.164973 -0.164973 2 2 3
0.0214978 -0.166917 -0.166917 2 2 3
0.0218874 -0.168919 -0.168919 2 2 3
0.0222936 -0.170981 -0.170981 2 2 3
0.0227176 -0.173106 -0.173106 2 2 3
0.0231604 -0.175298 -0.175298 2 2 3
0.0236233 -0.177559 -0.177559 2 2 3
0.0241075 -0.179894 -0.179894 2 2 3
0.0246145 -0.182305 -0.182305 2 2 3
0.0251458 -0.184799 -0.184799 2 2 3
0.0257031 -0.187377 -0.187377 2 2 3
0.0262881 -0.190046 -0.190046 2 2 3
0.0269028 -0.19281 -0.19281 2 2 3
0.0275493 -0.195674 -0.195674 2 2 3
0.02823 -0.198645 -0.198645 2 2 3
0.0289472 -0.201727 -0.201727 2 2 3
0.0297036 -0.204926 -0.204926 2 2 3
0.0305022 -0.208251 -0.208251 2 2 3
0.0313461 -0.211706 -0.211706 2 2 3
0.0322386 -0.2153 -0.2153 2 2 3
0.0331834 -0.21904 -0.21904 2 2 3
0.0341845 -0.222933 -0.222933 2 2 3
0.0352459 -0.226988 -0.226988 2 2 3
0.0363722 -0.231212 -0.231212 2 2 3
0.0375681 -0.235614 -0.235614 2 2 3
0.0388385 -0.240201 -0.240201 2 2 3
0.0401886 -0.244981 -0.244981 2 2 3
0.0416237 -0.249962 -0.249962 2 2 3
0.0431493 -0.25515 -0.25515 2 2 3
0.044771 -0.26055 -0.26055 2 2 3
0.0464941 -0.266168 -0.266168 2 2 3
0.0484305 -0.272225 -0.272225 2 2 3
0.050376 -0.278283 -0.278283 2 2 3
0.0524373 -0.284561 -0.284561 2 2 3
0.0546183 -0.291055 -0.291055 2 2 3
0.0569221 -0.29776 -0.29776 2 2 3
0.0593514 -0.304671 -0.304671 2 2 3
0.0619079 -0.311777 -0.311777 2 2 3
0.0645926 -0.319069 -0.319069 2 2 3
0.0674055 -0.326534 -0.326534 2 2 3
0.0703461 -0.33416 -0.33416 2 2 3
0.073413 -0.341931 -0.341931 2 2 3
0.0766043 -0.349834 -0.349834 2 2 3
0.0799177 -0.357854 -0.357854 2 2 3
0.0833503 -0.365978 -0.365978 2 2 3
0.0868991 -0.374191 -0.374191 2 2 3
0.0905608 -0.38248 -0.38248 2 2 3
0.0943322 -0.390833 -0.390833 2 2 3
0.0981023 -0.399184 -0.399184 2 2 3
0.102089 -0.407648 -0.407648 2 2 3
0.106173 -0.416143 -0.416143 2 2 3
0.110355 -0.424661 -0.424661 2 2 3
0.114629 -0.433195 -0.433195 2 2 3
0.118994 -0.44174 -0.44174 2 2 3
0.123446 -0.450289 -0.450289 2 2 3
0.127984 -0.458836 -0.458836 2 2 3
0.132604 -0.467379 -0.467379 2 2 3
0.137304 -0.475912 -0.475912 2 2 3
0.142082 -0.484433 -0.484433 2 2 3
0.146937 -0.492938 -0.492938 2 2 3
0.151865 -0.501424 -0.501424 2 2 3
0.156865 -0.50989 -0.50989 2 2 3
0.161935 -0.518334 -0.518334 2 2 3
0.167073 -0.526753 -0.526753 2 2 3
0.172279 -0.535146 -0.535146 2 2 3
0.177549 -0.543513 -0.543513 2 2 3
0.182883 -0.551852 -0.551852 2 2 3
0.18828 -0.560161 -0.560161 2 2 3
0.193737 -0.568441 -0.568441 2 2 3
0.199254 -0.57669 -0.57669 2 2 3
0.204829 -0.584908 -0.584908 2 2 3
0.210462 -0.593094 -0.593094 2 2 3
0.21615 -0.601249 -0.601249 2 2 3
0.221892 -0.609371 -0.609371 2 2 3
0.227688 -0.61746 -0.61746 2 2 3
0.233537 -0.625517 -0.625517 2 2 3
0.239437 -0.63354 -0.63354 2 2 3
0.245387 -0.64153 -0.64153 2 2 3
0.251387 -0.649487 -0.649487 2 2 3
0.257435 -0.657411 -0.657411 2 2 3
0.26353 -0.665302 -0.665302 2 2 3
0.269672 -0.673159 -0.673159 2 2 3
0.27586 -0.680982 -0.680982 2 2 3
0.282093 -0.688773 -0.688773 2 2 3
0.288369 -0.696531 -0.696531 2 2 3
0.294688 -0.704255 -0.704255 2 2 3
0.30105 -0.711946 -0.711946 2 2 3
0.307453 -0.719605 -0.719605 2 2 3
0.313897 -0.727231 -0.727231 2 2 3
0.320382 -0.734824 -0.734824 2 2 3
0.326905 -0.742385 -0.742385 2 2 3
0.333467 -0.749914 -0.749914 2 2 3
0.340066 -0.757411 -0.757411 2 2 3
0.346703 -0.764876 -0.764876 2 2 3
0.353377 -0.772309 -0.772309 2 2 3
0.360086 -0.779711 -0.779711 2 2 3
0.366831 -0.787082 -0.787082 2 2 3
0.37361 -0.794421 -0.794421 2 2 3
0.380424 -0.80173 -0.80173 2 2 3
0.38727 -0.809008 -0.809008 2 2 3
0.39415 -0.816256 -0.816256 2 2 3
0.401062 -0.823473 -0.823473 2 2 3
0.408005 -0.830661 -0.830661 2 2 3
0.41498 -0.837819 -0.837819 2 2 3
0.421986 -0.844947 -0.844947 2 2 3
0.429022 -0.852046 -0.852046 2 2 3
0.436087 -0.859115 -0.859115 2 2 3
0.443182 -0.866156 -0.866156 2 2 3
0.450305 -0.873168 -0.873168 2 2 3
0.457456 -0.880152 -0.880152 2 2 3
0.464635 -0.887108 -0.887108 2 2 3
0.471842 -0.894036 -0.894036 2 2 3
0.479075 -0.900936 -0.900936 2 2 3
0.486335 -0.907808 -0.907808 2 2 3
0.493621 -0.914653 -0.914653 2 2 3
0.500932 -0.921471 -0.921471 2 2 3
0.508269 -0.928262 -0.928262 2 2 3
0.51563 -0.935027 -0.935027 2 2 3
0.523016 -0.941765 -0.941765 2 2 3
0.530425 -0.948477 -0.948477 2 2 3
0.537859 -0.955162 -0.955162 2 2 3
0.545315 -0.961823 -0.961823 2 2 3
0.552794 -0.968457 -0.968457 2 2 3
0.560296 -0.975066 -0.975066 2 2 3
0.567821 -0.98165 -0.98165 2 2 3
0.575367 -0.98821 -0.98821 2 2 3
0.582934 -0.994744 -0.994744 2 2 3
0.590523 -1.00125 -1.00125 2 2 3
0.598133 -1.00774 -1.00774 2 2 3
0.605763 -1.0142 -1.0142 2 2 3
0.613413 -1.02064 -1.02064 2 2 3
0.621084 -1.02705 -1.02705 2 2 3
0.628774 -1.03344 -1.03344 2 2 3
0.636483 -1.03981 -1.03981 2 2 3
0.644212 -1.04615 -1.04615 2 2 3
0.651959 -1.05247 -1.05247 2 2 3
0.659725 -1.05877 -1.05877 2 2 3
0.667509 -1.06505 -1.06505 2 2 3
0.675312 -1.0713 -1.0713 2 2 3
0.683132 -1.07753 -1.07753 2 2 3
0.690969 -1.08374 -1.08374 2 2 3
0.698824 -1.08993 -1.08993 2 2 3
0.706696 -1.0961 -1.0961 2 2 3
0.714585 -1.10224 -1.10224 2 2 3
0.72249 -1.10836 -1.10836 2 2 3
0.730412 -1.11447 -1.11447 2 2 3
0.738349 -1.12055 -1.12055 2 2 3
0.746303 -1.12661 -1.12661 2 2 3
0.754272 -1.13265 -1.13265 2 2 3
0.762257 -1.13867 -1.13867 2 2 3
0.770257 -1.14467 -1.14467 2 2 3
0.778272 -1.15064 -1.15064 2 2 3
0.786302 -1.1566 -1.1566 2 2 3
0.794346 -1.16254 -1.16254 2 2 3
0.802405 -1.16846 -1.16846 2 2 3
0.810478 -1.17436 -1.17436 2 2 3
0.818565 -1.18024 -1.18024 2 2 3
0.826667 -1.18611 -1.18611 2 2 3
0.834782 -1.19195 -1.19195 2 2 3
0.84291 -1.19777 -1.19777 2 2 3
0.851052 -1.20358 -1.20358 2 2 3
0.859207 -1.20937 -1.20937 2 2 3
0.867375 -1.21513 -1.21513 2 2 3
0.875556 -1.22088 -1.22088 2 2 3
0.883749 -1.22662 -1.22662 2 2 3
0.891955 -1.23233 -1.23233 2 2 3
0.900174 -1.23803 -1.23803 2 2 3
0.908405 -1.24371 -1.24371 2 2 3
0.916648 -1.24937 -1.24937 2 2 3
0.924902 -1.25501 -1.25501 2 2 3
0.933169 -1.26064 -1.26064 2 2 3
0.941447 -1.26625 -1.26625 2 2 3
0.949737 -1.27184 -1.27184 2 2 3
0.958038 -1.27742 -1.27742 2 2 3
0.96635 -1.28297 -1.28297 2 2 3
0.974673 -1.28852 -1.28852 2 2 3
0.983008 -1.29404 -1.29404 2 2 3
0.991353 -1.29955 -1.29955 2 2 3
0.999709 -1.30505 -1.30505 2 2 3
1.00808 -1.31052 -1.31052 2 2 3
0.144503 0.11 0.11 2 3 3
0.144503 0.110034 0.110034 2 3 3
