0.663327 0.11 0.11 2 3 2
0.663345 0.11 0.11 2 3 2
0.663345 0.11 0.11 2 3 2
0.663345 0.11 0.11 2 3 2
0.663345 0.11 0.11 2 3 2
0.663345 0.11 0.11 2 3 2
0.668236 0.11071 0.11071 2 3 2
0.678022 0.112117 0.112117 2 3 2
0.687812 0.113508 0.113508 2 3 2
0.697607 0.114882 0.114882 2 3 2
0.707407 0.116241 0.116241 2 3 2
0.71721 0.117584 0.117584 2 3 2
0.727018 0.118914 0.118914 2 3 2
0.736829 0.120229 0.120229 2 3 2
0.746644 0.12153 0.12153 2 3 2
0.756463 0.122818 0.122818 2 3 2
0.766285 0.124094 0.124094 2 3 2
0.776111 0.125356 0.125356 2 3 2
0.78594 0.126607 0.126607 2 3 2
0.795771 0.127846 0.127846 2 3 2
0.805606 0.129073 0.129073 2 3 2
0.815444 0.13029 0.13029 2 3 2
0.825284 0.131495 0.131495 2 3 2
0.835127 0.13269 0.13269 2 3 2
0.844973 0.133874 0.133874 2 3 2
0.854821 0.135049 0.135049 2 3 2
0.864671 0.136213 0.136213 2 3 2
0.874524 0.137369 0.137369 2 3 2
0.884379 0.138514 0.138514 2 3 2
0.894237 0.139651 0.139651 2 3 2
0.904096 0.140779 0.140779 2 3 2
0.913958 0.141898 0.141898 2 3 2
0.923821 0.143008 0.143008 2 3 2
0.933687 0.144111 0.144111 2 3 2
0.943554 0.145205 0.145205 2 3 2
0.953424 0.146291 0.146291 2 3 2
0.963295 0.147369 0.147369 2 3 2
0.973168 0.14844 0.14844 2 3 2
0.983042 0.149503 0.149503 2 3 2
0.992919 0.150559 0.150559 2 3 2
1.0028 0.151608 0.151608 2 3 2
0.663327 0.151608 0.151608 2 4 2
0.663345 0.151608 0.151608 2 4 2
0.663345 0.151608 0.151608 2 4 2
0.663345 0.151608 0.151608 2 4 2
0.663345 0.151608 0.151608 2 4 2
0.663345 0.11 0.11 2 4 2
0.658456 0.109286 0.109286 2 4 2
0.648681 0.107843 0.107843 2 4 2
0.638911 0.106383 0.106383 2 4 2
0.629148 0.104902 0.104902 2 4 2
0.61939 0.103402 0.103402 2 4 2
0.609639 0.101881 0.101881 2 4 2
0.599895 0.100338 0.100338 2 4 2
0.590159 0.0987723 0.0987723 2 4 2
0.58043 0.0971829 0.0971829 2 4 2
0.57071 0.0955687 0.0955687 2 4 2
0.560998 0.0939284 0.0939284 2 4 2
0.551297 0.0922608 0.0922608 2 4 2
0.541605 0.0905646 0.0905646 2 4 2
0.531924 0.0888382 0.0888382 2 4 2
0.522256 0.0870801 0.0870801 2 4 2
0.5126 0.0852884 0.0852884 2 4 2
0.502958 0.0834613 0.0834613 2 4 2
0.493331 0.0815965 0.0815965 2 4 2
0.483721 0.0796918 0.0796918 2 4 2
0.474129 0.0777446 0.0777446 2 4 2
0.464557 0.075752 0.075752 2 4 2
0.455008 0.0737107 0.0737107 2 4 2
0.445483 0.0716173 0.0716173 2 4 2
0.435985 0.0694677 0.0694677 2 4 2
0.426519 0.0672572 0.0672572 2 4 2
0.417087 0.0649807 0.0649807 2 4 2
0.407695 0.0626323 0.0626323 2 4 2
0.398348 0.0602049 0.0602049 2 4 2
0.389053 0.0576905 0.0576905 2 4 2
0.379819 0.0550796 0.0550796 2 4 2
0.370656 0.0523609 0.0523609 2 4 2
0.361577 0.0495206 0.0495206 2 4 2
0.352598 0.046542 0.046542 2 4 2
0.34374 0.043404 0.043404 2 4 2
0.33503 0.0400796 0.0400796 2 4 2
0.326504 0.0365331 0.0365331 2 4 2
0.318209 0.0327151 0.0327151 2 4 2
0.310213 0.0285534 0.0285534 2 4 2
0.302612 0.0239329 0.0239329 2 4 2
0.295561 0.0186461 0.0186461 2 4 2
0.289369 0.0122435 0.0122435 2 4 2
0.28504 0.0034092 0.0034092 2 4 2
0.289209 -0.012033 -0.012033 2 4 2
0.296466 -0.019405 -0.019405 2 4 2
0.303657 -0.0246193 -0.0246193 2 4 2
0.311333 -0.0291723 -0.0291723 2 4 2
0.319383 -0.0332821 -0.0332821 2 4 2
0.327718 -0.037059 -0.037059 2 4 2
0.336276 -0.0405718 -0.0405718 2 4 2
0.345011 -0.043868 -0.043868 2 4 2
0.353889 -0.0469819 -0.0469819 2 4 2
0.362885 -0.0499396 -0.0499396 2 4 2
0.371978 -0.0527615 -0.0527615 2 4 2
0.381152 -0.055464 -0.055464 2 4 2
0.390396 -0.0580604 -0.0580604 2 4 2
0.399699 -0.0605617 -0.0605617 2 4 2
0.409053 -0.0629772 -0.0629772 2 4 2
0.418451 -0.0653149 -0.0653149 2 4 2
0.427888 -0.0675815 -0.0675815 2 4 2
0.43736 -0.0697829 -0.0697829 2 4 2
0.446862 -0.0719241 -0.0719241 2 4 2
0.45639 -0.0740098 -0.0740098 2 4 2
0.465944 -0.0760437 -0.0760437 2 4 2
0.475519 -0.0780296 -0.0780296 2 4 2
0.485113 -0.0799705 -0.0799705 2 4 2
0.494726 -0.0818693 -0.0818693 2 4 2
0.504355 -0.0837284 -0.0837284 2 4 2
0.513999 -0.0855503 -0.0855503 2 4 2
0.523657 -0.087337 -0.087337 2 4 2
0.533327 -0.0890904 -0.0890904 2 4 2
0.543009 -0.0908123 -0.0908123 2 4 2
0.552703 -0.0925043 -0.0925043 2 4 2
0.562406 -0.0941679 -0.0941679 2 4 2
0.572119 -0.0958043 -0.0958043 2 4 2
0.58184 -0.0974149 -0.0974149 2 4 2
0.59157 -0.0990008 -0.0990008 2 4 2
0.601308 -0.100563 -0.100563 2 4 2
0.611053 -0.102103 -0.102103 2 4 2
0.620804 -0.103621 -0.103621 2 4 2
0.630563 -0.105118 -0.105118 2 4 2
0.640327 -0.106596 -0.106596 2 4 2
0.650098 -0.108054 -0.108054 2 4 2
0.659874 -0.109493 -0.109493 2 4 2
0.669655 -0.110915 -0.110915 2 4 2
0.679441 -0.11232 -0.11232 2 4 2
0.689232 -0.113708 -0.113708 2 4 2
0.699028 -0.11508 -0.11508 2 4 2
0.708828 -0.116436 -0.116436 2 4 2
0.718632 -0.117778 -0.117778 2 4 2
0.72844 -0.119105 -0.119105 2 4 2
0.738252 -0.120418 -0.120418 2 4 2
0.748068 -0.121718 -0.121718 2 4 2
0.757887 -0.123004 -0.123004 2 4 2
0.76771 -0.124277 -0.124277 2 4 2
0.777536 -0.125539 -0.125539 2 4 2
0.787365 -0.126787 -0.126787 2 4 2
0.797197 -0.128025 -0.128025 2 4 2
0.807032 -0.12925 -0.12925 2 4 2
0.81687 -0.130465 -0.130465 2 4 2
0.826711 -0.131669 -0.131669 2 4 2
0.836554 -0.132862 -0.132862 2 4 2
0.8464 -0.134045 -0.134045 2 4 2
0.856249 -0.135218 -0.135218 2 4 2
0.8661 -0.136382 -0.136382 2 4 2
0.875953 -0.137535 -0.137535 2 4 2
0.885808 -0.13868 -0.13868 2 4 2
0.895666 -0.139815 -0.139815 2 4 2
0.905526 -0.140942 -0.140942 2 4 2
0.915388 -0.142059 -0.142059 2 4 2
0.925252 -0.143169 -0.143169 2 4 2
0.935117 -0.14427 -0.14427 2 4 2
0.944985 -0.145363 -0.145363 2 4 2
0.954855 -0.146448 -0.146448 2 4 2
0.964726 -0.147525 -0.147525 2 4 2
0.0525486 0.11 0.11 2 2 3
0.0521518 0.109249 0.109249 2 2 3
0.051763 0.108507 0.108507 2 2 3
0.051384 0.107778 0.107778 2 2 3
0.051015 0.107062 0.107062 2 2 3
0.0506536 0.106355 0.106355 2 2 3
0.0502997 0.105658 0.105658 2 2 3
0.0499529 0.10497 0.10497 2 2 3
0.0496131 0.104291 0.104291 2 2 3
0.0492801 0.10362 0.10362 2 2 3
0.0489536 0.102958 0.102958 2 2 3
0.0486335 0.102305 0.102305 2 2 3
0.0483197 0.101659 0.101659 2 2 3
0.0480118 0.101022 0.101022 2 2 3
0.0477099 0.100392 0.100392 2 2 3
0.0474136 0.09977 0.09977 2 2 3
0.0471229 0.0991552 0.0991552 2 2 3
0.0468376 0.0985478 0.0985478 2 2 3
0.0465576 0.0979473 0.0979473 2 2 3
0.0462827 0.0973539 0.0973539 2 2 3
0.0460128 0.0967671 0.0967671 2 2 3
0.0457477 0.096187 0.096187 2 2 3
0.0454873 0.0956134 0.0956134 2 2 3
0.0452316 0.0950461 0.0950461 2 2 3
0.0449803 0.094485 0.094485 2 2 3
0.0447335 0.0939299 0.0939299 2 2 3
0.0444909 0.0933808 0.0933808 2 2 3
0.0442524 0.0928375 0.0928375 2 2 3
0.0440181 0.0922999 0.0922999 2 2 3
0.0437876 0.0917678 0.0917678 2 2 3
0.0435611 0.0912412 0.0912412 2 2 3
0.0433383 0.09072 0.09072 2 2 3
0.0431192 0.090204 0.090204 2 2 3
0.0429037 0.0896931 0.0896931 2 2 3
0.0426918 0.0891872 0.0891872 2 2 3
0.0424832 0.0886863 0.0886863 2 2 3
0.042278 0.0881902 0.0881902 2 2 3
0.0420761 0.0876988 0.0876988 2 2 3
0.0418774 0.0872121 0.0872121 2 2 3
0.0416818 0.0867299 0.0867299 2 2 3
0.0414892 0.0862521 0.0862521 2 2 3
0.0412997 0.0857788 0.0857788 2 2 3
0.0411131 0.0853097 0.0853097 2 2 3
0.0409293 0.0848449 0.0848449 2 2 3
0.0407483 0.0843842 0.0843842 2 2 3
0.0405701 0.0839275 0.0839275 2 2 3
0.0403946 0.0834748 0.0834748 2 2 3
0.0402217 0.083026 0.083026 2 2 3
0.0400513 0.0825811 0.0825811 2 2 3
0.0398834 0.0821399 0.0821399 2 2 3
0.0397181 0.0817024 0.0817024 2 2 3
0.0395551 0.0812685 0.0812685 2 2 3
0.0393945 0.0808382 0.0808382 2 2 3
0.0392362 0.0804114 0.0804114 2 2 3
0.0390801 0.079988 0.079988 2 2 3
0.0389263 0.079568 0.079568 2 2 3
0.0387746 0.0791513 0.0791513 2 2 3
0.0386251 0.0787379 0.0787379 2 2 3
0.0384777 0.0783276 0.0783276 2 2 3
0.0383323 0.0779205 0.0779205 2 2 3
0.0381889 0.0775165 0.0775165 2 2 3
0.0380475 0.0771155 0.0771155 2 2 3
0.037908 0.0767175 0.0767175 2 2 3
0.0377705 0.0763224 0.0763224 2 2 3
0.0376347 0.0759302 0.0759302 2 2 3
0.0375008 0.0755408 0.0755408 2 2 3
0.0373687 0.0751542 0.0751542 2 2 3
0.0372383 0.0747704 0.0747704 2 2 3
0.0371097 0.0743892 0.0743892 2 2 3
0.0369828 0.0740107 0.0740107 2 2 3
0.0368575 0.0736347 0.0736347 2 2 3
0.0367338 0.0732613 0.0732613 2 2 3
0.0366118 0.0728905 0.0728905 2 2 3
0.0364913 0.0725221 0.0725221 2 2 3
0.0363723 0.0721561 0.0721561 2 2 3
0.0362549 0.0717925 0.0717925 2 2 3
0.036139 0.0714313 0.0714313 2 2 3
0.0360245 0.0710723 0.0710723 2 2 3
0.0359115 0.0707157 0.0707157 2 2 3
0.0357998 0.0703613 0.0703613 2 2 3
0.0356896 0.070009 0.070009 2 2 3
0.0355807 0.069659 0.069659 2 2 3
0.0354732 0.0693111 0.0693111 2 2 3
0.035367 0.0689652 0.0689652 2 2 3
0.0352621 0.0686214 0.0686214 2 2 3
0.0351584 0.0682797 0.0682797 2 2 3
0.035056 0.0679399 0.0679399 2 2 3
0.0349549 0.0676021 0.0676021 2 2 3
0.0348549 0.0672662 0.0672662 2 2 3
0.0347562 0.0669323 0.0669323 2 2 3
0.0346586 0.0666001 0.0666001 2 2 3
0.0345621 0.0662699 0.0662699 2 2 3
0.0344668 0.0659414 0.0659414 2 2 3
0.0343727 0.0656147 0.0656147 2 2 3
0.0342796 0.0652898 0.0652898 2 2 3
0.0341876 0.0649665 0.0649665 2 2 3
0.0340966 0.064645 0.064645 2 2 3
0.0340067 0.0643251 0.0643251 2 2 3
0.0339179 0.0640069 0.0640069 2 2 3
0.03383 0.0636903 0.0636903 2 2 3
0.0337432 0.0633753 0.0633753 2 2 3
0.0336573 0.0630618 0.0630618 2 2 3
0.0335724 0.0627499 0.0627499 2 2 3
0.0334885 0.0624395 0.0624395 2 2 3
0.0334055 0.0621305 0.0621305 2 2 3
0.0333234 0.0618231 0.0618231 2 2 3
0.0332422 0.061517 0.061517 2 2 3
0.033162 0.0612124 0.0612124 2 2 3
0.0330826 0.0609092 0.0609092 2 2 3
0.0330041 0.0606073 0.0606073 2 2 3
0.0329264 0.0603068 0.0603068 2 2 3
0.0328496 0.0600077 0.0600077 2 2 3
0.0327736 0.0597098 0.0597098 2 2 3
0.0326985 0.0594132 0.0594132 2 2 3
0.0326241 0.0591178 0.0591178 2 2 3
0.0325506 0.0588237 0.0588237 2 2 3
0.0324778 0.0585308 0.0585308 2 2 3
0.0324059 0.0582391 0.0582391 2 2 3
0.0323346 0.0579486 0.0579486 2 2 3
0.0322642 0.0576593 0.0576593 2 2 3
0.0321944 0.057371 0.057371 2 2 3
0.0321255 0.0570839 0.0570839 2 2 3
0.0320572 0.0567979 0.0567979 2 2 3
0.0319896 0.056513 0.056513 2 2 3
0.0319228 0.0562291 0.0562291 2 2 3
0.0318566 0.0559463 0.0559463 2 2 3
0.0317911 0.0556645 0.0556645 2 2 3
0.0317263 0.0553837 0.0553837 2 2 3
0.0316622 0.0551038 0.0551038 2 2 3
0.0315987 0.054825 0.054825 2 2 3
0.0315359 0.0545471 0.0545471 2 2 3
0.0314737 0.0542701 0.0542701 2 2 3
0.0314121 0.053994 0.053994 2 2 3
0.0313512 0.0537189 0.0537189 2 2 3
0.0312909 0.0534446 0.0534446 2 2 3
0.0312311 0.0531712 0.0531712 2 2 3
0.031172 0.0528986 0.0528986 2 2 3
0.0311135 0.0526268 0.0526268 2 2 3
0.0310555 0.0523559 0.0523559 2 2 3
0.0309982 0.0520858 0.0520858 2 2 3
0.0309414 0.0518164 0.0518164 2 2 3
0.0308851 0.0515478 0.0515478 2 2 3
0.0308294 0.05128 0.05128 2 2 3
0.0307743 0.0510128 0.0510128 2 2 3
0.0307197 0.0507464 0.0507464 2 2 3
0.0306656 0.0504807 0.0504807 2 2 3
0.0306121 0.0502157 0.0502157 2 2 3
0.030559 0.0499513 0.0499513 2 2 3
0.0305065 0.0496876 0.0496876 2 2 3
0.0304545 0.0494246 0.0494246 2 2 3
0.030403 0.0491621 0.0491621 2 2 3
0.030352 0.0489003 0.0489003 2 2 3
0.0303015 0.048639 0.048639 2 2 3
0.0302514 0.0483783 0.0483783 2 2 3
0.0302019 0.0481182 0.0481182 2 2 3
0.0301528 0.0478587 0.0478587 2 2 3
0.0301041 0.0475996 0.0475996 2 2 3
0.030056 0.0473411 0.0473411 2 2 3
0.0300083 0.047083 0.047083 2 2 3
0.029961 0.0468255 0.0468255 2 2 3
0.0299142 0.0465684 0.0465684 2 2 3
0.0298678 0.0463118 0.0463118 2 2 3
0.0298219 0.0460556 0.0460556 2 2 3
0.0297764 0.0457998 0.0457998 2 2 3
0.0297313 0.0455445 0.0455445 2 2 3
0.0296866 0.0452895 0.0452895 2 2 3
0.0296423 0.0450349 0.0450349 2 2 3
0.0295985 0.0447807 0.0447807 2 2 3
0.029555 0.0445268 0.0445268 2 2 3
0.029512 0.0442733 0.0442733 2 2 3
0.0294693 0.0440201 0.0440201 2 2 3
0.0294271 0.0437672 0.0437672 2 2 3
0.0293852 0.0435145 0.0435145 2 2 3
0.0293437 0.0432622 0.0432622 2 2 3
0.0293026 0.0430101 0.0430101 2 2 3
0.0292619 0.0427582 0.0427582 2 2 3
0.0292215 0.0425066 0.0425066 2 2 3
0.0291815 0.0422551 0.0422551 2 2 3
0.0291419 0.0420039 0.0420039 2 2 3
0.0291026 0.0417529 0.0417529 2 2 3
0.0290637 0.041502 0.041502 2 2 3
0.0290251 0.0412512 0.0412512 2 2 3
0.0289868 0.0410006 0.0410006 2 2 3
0.028949 0.0407501 0.0407501 2 2 3
0.0289114 0.0404997 0.0404997 2 2 3
0.0288742 0.0402494 0.0402494 2 2 3
0.0288373 0.0399992 0.0399992 2 2 3
0.0288008 0.039749 0.039749 2 2 3
0.0287645 0.0394988 0.0394988 2 2 3
0.0287286 0.0392487 0.0392487 2 2 3
0.028693 0.0389985 0.0389985 2 2 3
0.0286578 0.0387483 0.0387483 2 2 3
0.0286228 0.0384981 0.0384981 2 2 3
0.0285882 0.0382478 0.0382478 2 2 3
0.0285538 0.0379975 0.0379975 2 2 3
0.0285198 0.0377471 0.0377471 2 2 3
0.028486 0.0374965 0.0374965 2 2 3
0.0284526 0.0372458 0.0372458 2 2 3
0.0284194 0.036995 0.036995 2 2 3
0.0283866 0.036744 0.036744 2 2 3
0.028354 0.0364928 0.0364928 2 2 3
0.0283217 0.0362414 0.0362414 2 2 3
0.0282897 0.0359898 0.0359898 2 2 3
0.0282579 0.0357379 0.0357379 2 2 3
0.0282265 0.0354858 0.0354858 2 2 3
0.0281953 0.0352334 0.0352334 2 2 3
0.0281644 0.0349806 0.0349806 2 2 3
0.0281337 0.0347275 0.0347275 2 2 3
0.0281034 0.0344741 0.0344741 2 2 3
0.0280732 0.0342202 0.0342202 2 2 3
0.0280434 0.033966 0.033966 2 2 3
0.0280138 0.0337113 0.0337113 2 2 3
0.0279844 0.0334562 0.0334562 2 2 3
0.0279554 0.0332005 0.0332005 2 2 3
0.0279265 0.0329444 0.0329444 2 2 3
0.0278979 0.0326877 0.0326877 2 2 3
0.0278696 0.0324305 0.0324305 2 2 3
0.0278415 0.0321727 0.0321727 2 2 3
0.0278136 0.0319142 0.0319142 2 2 3
0.027786 0.0316551 0.0316551 2 2 3
0.0277586 0.0313953 0.0313953 2 2 3
0.0277315 0.0311348 0.0311348 2 2 3
0.0277045 0.0308736 0.0308736 2 2 3
0.0276779 0.0306115 0.0306115 2 2 3
0.0276514 0.0303487 0.0303487 2 2 3
0.0276252 0.030085 0.030085 2 2 3
0.0275992 0.0298204 0.0298204 2 2 3
0.0275734 0.0295549 0.0295549 2 2 3
0.0275478 0.0292884 0.0292884 2 2 3
0.0275225 0.0290209 0.0290209 2 2 3
0.0274973 0.0287524 0.0287524 2 2 3
0.0274724 0.0284828 0.0284828 2 2 3
0.0274477 0.028212 0.028212 2 2 3
0.0274232 0.0279401 0.0279401 2 2 3
0.0273989 0.0276669 0.0276669 2 2 3
0.0273748 0.0273924 0.0273924 2 2 3
0.027351 0.0271166 0.0271166 2 2 3
0.0273273 0.0268395 0.0268395 2 2 3
0.0273038 0.0265608 0.0265608 2 2 3
0.0272805 0.0262807 0.0262807 2 2 3
0.0272575 0.0259989 0.0259989 2 2 3
0.0272346 0.0257156 0.0257156 2 2 3
0.0272119 0.0254305 0.0254305 2 2 3
0.0271894 0.0251437 0.0251437 2 2 3
0.0271671 0.024855 0.024855 2 2 3
0.027145 0.0245644 0.0245644 2 2 3
0.0271231 0.0242717 0.0242717 2 2 3
0.0271013 0.023977 0.023977 2 2 3
0.0270798 0.0236801 0.0236801 2 2 3
0.0270584 0.0233808 0.0233808 2 2 3
0.0270372 0.0230792 0.0230792 2 2 3
0.0270162 0.0227751 0.0227751 2 2 3
0.0269954 0.0224684 0.0224684 2 2 3
0.0269748 0.0221589 0.0221589 2 2 3
0.0269543 0.0218465 0.0218465 2 2 3
0.026934 0.0215312 0.0215312 2 2 3
0.0269139 0.0212127 0.0212127 2 2 3
0.0268939 0.0208909 0.0208909 2 2 3
0.0268741 0.0205656 0.0205656 2 2 3
0.0268545 0.0202366 0.0202366 2 2 3
0.0268351 0.0199038 0.0199038 2 2 3
0.0268158 0.0195669 0.0195669 2 2 3
0.0267967 0.0192257 0.0192257 2 2 3
0.0267777 0.0188799 0.0188799 2 2 3
0.0267589 0.0185294 0.0185294 2 2 3
0.0267403 0.0181737 0.0181737 2 2 3
0.0267218 0.0178126 0.0178126 2 2 3
0.0267035 0.0174458 0.0174458 2 2 3
0.0266854 0.0170728 0.0170728 2 2 3
0.0266674 0.0166932 0.0166932 2 2 3
0.0266495 0.0163065 0.0163065 2 2 3
0.0266319 0.0159123 0.0159123 2 2 3
0.0266143 0.0155099 0.0155099 2 2 3
0.0265969 0.0150987 0.0150987 2 2 3
0.0265797 0.0146779 0.0146779 2 2 3
0.0265626 0.0142466 0.0142466 2 2 3
0.0265457 0.0138039 0.0138039 2 2 3
0.0265289 0.0133487 0.0133487 2 2 3
0.0265123 0.0128796 0.0128796 2 2 3
0.0264958 0.012395 0.012395 2 2 3
0.0264794 0.011893 0.011893 2 2 3
0.0264632 0.0113715 0.0113715 2 2 3
0.0264472 0.0108276 0.0108276 2 2 3
0.0264312 0.0102578 0.0102578 2 2 3
0.0264155 0.00965772 0.00965772 2 2 3
0.0263998 0.00902149 0.00902149 2 2 3
0.0263843 0.00834122 0.00834122 2 2 3
0.026369 0.00760579 0.00760579 2 2 3
0.0263538 0.00679866 0.00679866 2 2 3
0.0263387 0.00589343 0.00589343 2 2 3
0.0263238 0.00484341 0.00484341 2 2 3
0.026309 0.00355157 0.00355157 2 2 3
0.0263019 0.002478 0.002478 2 2 3
0.0262984 0.00160519 0.00160519 2 2 3
0.0262986 -0.00132141 -0.00132141 2 2 3
0.0263023 -0.00222341 -0.00222341 2 2 3
0.0263052 -0.0029146 -0.0029146 2 2 3
0.0263124 -0.00388028 -0.00388028 2 2 3
0.0263271 -0.00543066 -0.00543066 2 2 3
0.026342 -0.00633146 -0.00633146 2 2 3
0.0263572 -0.00706689 -0.00706689 2 2 3
0.0263724 -0.00781833 -0.00781833 2 2 3
0.0263878 -0.00852704 -0.00852704 2 2 3
0.0264033 -0.00918752 -0.00918752 2 2 3
0.026419 -0.0098094 -0.0098094 2 2 3
0.0264348 -0.0103986 -0.0103986 2 2 3
0.0264508 -0.0109598 -0.0109598 2 2 3
0.0264669 -0.0114967 -0.0114967 2 2 3
0.0264831 -0.0120124 -0.0120124 2 2 3
0.0264995 -0.0125093 -0.0125093 2 2 3
0.026516 -0.0129896 -0.0129896 2 2 3
0.0265327 -0.013455 -0.013455 2 2 3
0.0265495 -0.0139068 -0.0139068 2 2 3
0.0265665 -0.0143465 -0.0143465 2 2 3
0.0265836 -0.0147751 -0.0147751 2 2 3
0.0266008 -0.0151934 -0.0151934 2 2 3
0.0266182 -0.0156024 -0.0156024 2 2 3
0.0266358 -0.0160028 -0.0160028 2 2 3
0.0266535 -0.0163951 -0.0163951 2 2 3
0.0266714 -0.01678 -0.01678 2 2 3
0.0266894 -0.017158 -0.017158 2 2 3
0.0267076 -0.0175295 -0.0175295 2 2 3
0.026726 -0.0178949 -0.0178949 2 2 3
0.0267445 -0.0182547 -0.0182547 2 2 3
0.0267631 -0.0186091 -0.0186091 2 2 3
0.026782 -0.0189585 -0.0189585 2 2 3
0.026801 -0.0193032 -0.0193032 2 2 3
0.0268201 -0.0196433 -0.0196433 2 2 3
0.0268394 -0.0199793 -0.0199793 2 2 3
0.0268589 -0.0203112 -0.0203112 2 2 3
0.0268786 -0.0206393 -0.0206393 2 2 3
0.0268984 -0.0209638 -0.0209638 2 2 3
0.0269184 -0.0212848 -0.0212848 2 2 3
0.0269385 -0.0216026 -0.0216026 2 2 3
0.0269589 -0.0219172 -0.0219172 2 2 3
0.0269794 -0.0222289 -0.0222289 2 2 3
0.0270001 -0.0225377 -0.0225377 2 2 3
0.0270209 -0.0228439 -0.0228439 2 2 3
0.027042 -0.0231474 -0.0231474 2 2 3
0.0270632 -0.0234484 -0.0234484 2 2 3
0.0270846 -0.0237471 -0.0237471 2 2 3
0.0271062 -0.0240436 -0.0240436 2 2 3
0.027128 -0.0243378 -0.0243378 2 2 3
0.02715 -0.02463 -0.02463 2 2 3
0.0271721 -0.0249201 -0.0249201 2 2 3
0.0271944 -0.0252084 -0.0252084 2 2 3
0.027217 -0.0254948 -0.0254948 2 2 3
0.0272397 -0.0257795 -0.0257795 2 2 3
0.0272626 -0.0260625 -0.0260625 2 2 3
0.0272858 -0.0263438 -0.0263438 2 2 3
0.0273091 -0.0266236 -0.0266236 2 2 3
0.0273326 -0.0269019 -0.0269019 2 2 3
0.0273563 -0.0271788 -0.0271788 2 2 3
0.0273802 -0.0274543 -0.0274543 2 2 3
0.0274044 -0.0277285 -0.0277285 2 2 3
0.0274287 -0.0280014 -0.0280014 2 2 3
0.0274532 -0.028273 -0.028273 2 2 3
0.027478 -0.0285435 -0.0285435 2 2 3
0.027503 -0.0288129 -0.0288129 2 2 3
0.0275281 -0.0290812 -0.0290812 2 2 3
0.0275535 -0.0293484 -0.0293484 2 2 3
0.0275791 -0.0296147 -0.0296147 2 2 3
0.027605 -0.02988 -0.02988 2 2 3
0.027631 -0.0301444 -0.0301444 2 2 3
0.0276573 -0.0304079 -0.0304079 2 2 3
0.0276838 -0.0306705 -0.0306705 2 2 3
0.0277106 -0.0309324 -0.0309324 2 2 3
0.0277375 -0.0311935 -0.0311935 2 2 3
0.0277647 -0.0314538 -0.0314538 2 2 3
0.0277922 -0.0317134 -0.0317134 2 2 3
0.0278199 -0.0319724 -0.0319724 2 2 3
0.0278478 -0.0322307 -0.0322307 2 2 3
0.0278759 -0.0324884 -0.0324884 2 2 3
0.0279043 -0.0327455 -0.0327455 2 2 3
0.027933 -0.033002 -0.033002 2 2 3
0.0279619 -0.033258 -0.033258 2 2 3
0.027991 -0.0335135 -0.0335135 2 2 3
0.0280204 -0.0337686 -0.0337686 2 2 3
0.0280501 -0.0340232 -0.0340232 2 2 3
0.02808 -0.0342773 -0.0342773 2 2 3
0.0281102 -0.0345311 -0.0345311 2 2 3
0.0281406 -0.0347844 -0.0347844 2 2 3
0.0281713 -0.0350374 -0.0350374 2 2 3
0.0282023 -0.0352901 -0.0352901 2 2 3
0.0282335 -0.0355425 -0.0355425 2 2 3
0.028265 -0.0357946 -0.0357946 2 2 3
0.0282968 -0.0360464 -0.0360464 2 2 3
0.0283289 -0.036298 -0.036298 2 2 3
0.0283613 -0.0365493 -0.0365493 2 2 3
0.0283939 -0.0368004 -0.0368004 2 2 3
0.0284268 -0.0370514 -0.0370514 2 2 3
0.0284601 -0.0373022 -0.0373022 2 2 3
0.0284936 -0.0375528 -0.0375528 2 2 3
0.0285274 -0.0378034 -0.0378034 2 2 3
0.0285615 -0.0380538 -0.0380538 2 2 3
0.0285959 -0.0383041 -0.0383041 2 2 3
0.0286306 -0.0385543 -0.0385543 2 2 3
0.0286657 -0.0388045 -0.0388045 2 2 3
0.028701 -0.0390547 -0.0390547 2 2 3
0.0287367 -0.0393049 -0.0393049 2 2 3
0.0287727 -0.039555 -0.039555 2 2 3
0.028809 -0.0398052 -0.0398052 2 2 3
0.0288456 -0.0400554 -0.0400554 2 2 3
0.0288825 -0.0403057 -0.0403057 2 2 3
0.0289198 -0.040556 -0.040556 2 2 3
0.0289574 -0.0408064 -0.0408064 2 2 3
0.0289954 -0.0410569 -0.0410569 2 2 3
0.0290337 -0.0413076 -0.0413076 2 2 3
0.0290724 -0.0415583 -0.0415583 2 2 3
0.0291114 -0.0418093 -0.0418093 2 2 3
0.0291507 -0.0420603 -0.0420603 2 2 3
0.0291905 -0.0423116 -0.0423116 2 2 3
0.0292305 -0.0425631 -0.0425631 2 2 3
0.029271 -0.0428148 -0.0428148 2 2 3
0.0293118 -0.0430667 -0.0430667 2 2 3
0.029353 -0.0433188 -0.0433188 2 2 3
0.0293946 -0.0435713 -0.0435713 2 2 3
0.0294365 -0.043824 -0.043824 2 2 3
0.0294789 -0.0440769 -0.0440769 2 2 3
0.0295216 -0.0443302 -0.0443302 2 2 3
0.0295648 -0.0445838 -0.0445838 2 2 3
0.0296083 -0.0448378 -0.0448378 2 2 3
0.0296522 -0.0450921 -0.0450921 2 2 3
0.0296966 -0.0453468 -0.0453468 2 2 3
0.0297414 -0.0456018 -0.0456018 2 2 3
0.0297865 -0.0458573 -0.0458573 2 2 3
0.0298322 -0.0461131 -0.0461131 2 2 3
0.0298782 -0.0463694 -0.0463694 2 2 3
0.0299247 -0.0466261 -0.0466261 2 2 3
0.0299716 -0.0468833 -0.0468833 2 2 3
0.030019 -0.047141 -0.047141 2 2 3
0.0300668 -0.0473991 -0.0473991 2 2 3
0.030115 -0.0476578 -0.0476578 2 2 3
0.0301638 -0.0479169 -0.0479169 2 2 3
0.030213 -0.0481766 -0.0481766 2 2 3
0.0302626 -0.0484369 -0.0484369 2 2 3
0.0303128 -0.0486977 -0.0486977 2 2 3
0.0303634 -0.0489591 -0.0489591 2 2 3
0.0304145 -0.049221 -0.049221 2 2 3
0.0304662 -0.0494836 -0.0494836 2 2 3
0.0305183 -0.0497468 -0.0497468 2 2 3
0.0305709 -0.0500107 -0.0500107 2 2 3
0.030624 -0.0502752 -0.0502752 2 2 3
0.0306777 -0.0505404 -0.0505404 2 2 3
0.0307319 -0.0508062 -0.0508062 2 2 3
0.0307866 -0.0510728 -0.0510728 2 2 3
0.0308419 -0.0513401 -0.0513401 2 2 3
0.0308977 -0.0516081 -0.0516081 2 2 3
0.0309541 -0.0518769 -0.0518769 2 2 3
0.031011 -0.0521464 -0.0521464 2 2 3
0.0310685 -0.0524167 -0.0524167 2 2 3
0.0311266 -0.0526878 -0.0526878 2 2 3
0.0311853 -0.0529598 -0.0529598 2 2 3
0.0312445 -0.0532325 -0.0532325 2 2 3
0.0313044 -0.0535061 -0.0535061 2 2 3
0.0313648 -0.0537806 -0.0537806 2 2 3
0.0314259 -0.054056 -0.054056 2 2 3
0.0314876 -0.0543322 -0.0543322 2 2 3
0.03155 -0.0546094 -0.0546094 2 2 3
0.0316129 -0.0548875 -0.0548875 2 2 3
0.0316766 -0.0551666 -0.0551666 2 2 3
0.0317409 -0.0554467 -0.0554467 2 2 3
0.0318058 -0.0557277 -0.0557277 2 2 3
0.0318714 -0.0560097 -0.0560097 2 2 3
0.0319377 -0.0562928 -0.0562928 2 2 3
0.0320048 -0.0565769 -0.0565769 2 2 3
0.0320725 -0.0568621 -0.0568621 2 2 3
0.0321409 -0.0571483 -0.0571483 2 2 3
0.0322101 -0.0574357 -0.0574357 2 2 3
0.0322799 -0.0577242 -0.0577242 2 2 3
0.0323506 -0.0580138 -0.0580138 2 2 3
0.032422 -0.0583046 -0.0583046 2 2 3
0.0324941 -0.0585965 -0.0585965 2 2 3
0.0325671 -0.0588897 -0.0588897 2 2 3
0.0326408 -0.0591841 -0.0591841 2 2 3
0.0327153 -0.0594797 -0.0594797 2 2 3
0.0327907 -0.0597766 -0.0597766 2 2 3
0.0328668 -0.0600748 -0.0600748 2 2 3
0.0329438 -0.0603743 -0.0603743 2 2 3
0.0330217 -0.0606751 -0.0606751 2 2 3
0.0331004 -0.0609772 -0.0609772 2 2 3
0.0331799 -0.0612808 -0.0612808 2 2 3
0.0332604 -0.0615857 -0.0615857 2 2 3
0.0333418 -0.061892 -0.061892 2 2 3
0.0334241 -0.0621998 -0.0621998 2 2 3
0.0335073 -0.0625091 -0.0625091 2 2 3
0.0335914 -0.0628199 -0.0628199 2 2 3
0.0336766 -0.0631321 -0.0631321 2 2 3
0.0337626 -0.0634459 -0.0634459 2 2 3
0.0338497 -0.0637613 -0.0637613 2 2 3
0.0339378 -0.0640783 -0.0640783 2 2 3
0.0340269 -0.0643969 -0.0643969 2 2 3
0.034117 -0.0647171 -0.0647171 2 2 3
0.0342082 -0.065039 -0.065039 2 2 3
0.0343004 -0.0653626 -0.0653626 2 2 3
0.0343937 -0.065688 -0.065688 2 2 3
0.0344882 -0.0660151 -0.0660151 2 2 3
0.0345837 -0.0663439 -0.0663439 2 2 3
0.0346804 -0.0666746 -0.0666746 2 2 3
0.0347783 -0.0670072 -0.0670072 2 2 3
0.0348773 -0.0673416 -0.0673416 2 2 3
0.0349775 -0.0676779 -0.0676779 2 2 3
0.035079 -0.0680161 -0.0680161 2 2 3
0.0351816 -0.0683563 -0.0683563 2 2 3
0.0352856 -0.0686985 -0.0686985 2 2 3
0.0353908 -0.0690428 -0.0690428 2 2 3
0.0354973 -0.0693891 -0.0693891 2 2 3
0.0356051 -0.0697375 -0.0697375 2 2 3
0.0357143 -0.070088 -0.070088 2 2 3
0.0358248 -0.0704407 -0.0704407 2 2 3
0.0359368 -0.0707957 -0.0707957 2 2 3
0.0360501 -0.0711528 -0.0711528 2 2 3
0.0361649 -0.0715123 -0.0715123 2 2 3
0.0362812 -0.071874 -0.071874 2 2 3
0.036399 -0.0722382 -0.0722382 2 2 3
0.0365183 -0.0726047 -0.0726047 2 2 3
0.0366391 -0.0729736 -0.0729736 2 2 3
0.0367615 -0.0733451 -0.0733451 2 2 3
0.0368855 -0.073719 -0.073719 2 2 3
0.0370112 -0.0740955 -0.0740955 2 2 3
0.0371385 -0.0744747 -0.0744747 2 2 3
0.0372675 -0.0748564 -0.0748564 2 2 3
0.0373983 -0.0752409 -0.0752409 2 2 3
0.0375308 -0.0756281 -0.0756281 2 2 3
0.0376651 -0.0760181 -0.0760181 2 2 3
0.0378013 -0.076411 -0.076411 2 2 3
0.0379393 -0.0768067 -0.0768067 2 2 3
0.0380792 -0.0772054 -0.0772054 2 2 3
0.038221 -0.0776071 -0.0776071 2 2 3
0.0383648 -0.0780118 -0.0780118 2 2 3
0.0385107 -0.0784196 -0.0784196 2 2 3
0.0386586 -0.0788305 -0.0788305 2 2 3
0.0388086 -0.0792447 -0.0792447 2 2 3
0.0389607 -0.0796622 -0.0796622 2 2 3
0.039115 -0.0800829 -0.0800829 2 2 3
0.0392716 -0.0805071 -0.0805071 2 2 3
0.0394304 -0.0809347 -0.0809347 2 2 3
0.0395916 -0.0813658 -0.0813658 2 2 3
0.0397551 -0.0818005 -0.0818005 2 2 3
0.039921 -0.0822388 -0.0822388 2 2 3
0.0400894 -0.0826808 -0.0826808 2 2 3
0.0402604 -0.0831266 -0.0831266 2 2 3
0.0404339 -0.0835763 -0.0835763 2 2 3
0.04061 -0.0840298 -0.0840298 2 2 3
0.0407889 -0.0844874 -0.0844874 2 2 3
0.0409705 -0.0849491 -0.0849491 2 2 3
0.0411549 -0.0854149 -0.0854149 2 2 3
0.0413421 -0.0858849 -0.0858849 2 2 3
0.0415324 -0.0863592 -0.0863592 2 2 3
0.0417256 -0.0868379 -0.0868379 2 2 3
0.0419219 -0.0873211 -0.0873211 2 2 3
0.0421213 -0.0878089 -0.0878089 2 2 3
0.042324 -0.0883014 -0.0883014 2 2 3
0.0425299 -0.0887985 -0.0887985 2 2 3
0.0427392 -0.0893006 -0.0893006 2 2 3
0.042952 -0.0898076 -0.0898076 2 2 3
0.0431683 -0.0903196 -0.0903196 2 2 3
0.0433882 -0.0908368 -0.0908368 2 2 3
0.0436118 -0.0913593 -0.0913593 2 2 3
0.0438392 -0.0918871 -0.0918871 2 2 3
0.0440705 -0.0924204 -0.0924204 2 2 3
0.0443058 -0.0929593 -0.0929593 2 2 3
0.0445452 -0.0935039 -0.0935039 2 2 3
0.0447887 -0.0940543 -0.0940543 2 2 3
0.0450366 -0.0946107 -0.0946107 2 2 3
0.0452889 -0.0951732 -0.0951732 2 2 3
0.0455456 -0.0957419 -0.0957419 2 2 3
0.045807 -0.096317 -0.096317 2 2 3
0.0460732 -0.0968986 -0.0968986 2 2 3
0.0463443 -0.0974869 -0.0974869 2 2 3
0.0466203 -0.0980819 -0.0980819 2 2 3
0.0469015 -0.0986839 -0.0986839 2 2 3
0.047188 -0.099293 -0.099293 2 2 3
0.04748 -0.0999094 -0.0999094 2 2 3
0.0477775 -0.100533 -0.100533 2 2 3
0.0480808 -0.101165 -0.101165 2 2 3
0.04839 -0.101804 -0.101804 2 2 3
0.0487052 -0.102451 -0.102451 2 2 3
0.0490267 -0.103107 -0.103107 2 2 3
0.0493547 -0.10377 -0.10377 2 2 3
0.0496892 -0.104443 -0.104443 2 2 3
0.0500306 -0.105124 -0.105124 2 2 3
0.050379 -0.105814 -0.105814 2 2 3
0.0507346 -0.106514 -0.106514 2 2 3
0.0510977 -0.107223 -0.107223 2 2 3
0.0514684 -0.107941 -0.107941 2 2 3
0.0518471 -0.10867 -0.10867 2 2 3
0.0522339 -0.109409 -0.109409 2 2 3
0.0526292 -0.110158 -0.110158 2 2 3
0.0530332 -0.110918 -0.110918 2 2 3
0.0534461 -0.111689 -0.111689 2 2 3
0.0538683 -0.112472 -0.112472 2 2 3
0.0543001 -0.113266 -0.113266 2 2 3
0.0547418 -0.114072 -0.114072 2 2 3
0.0551938 -0.114891 -0.114891 2 2 3
0.0556563 -0.115722 -0.115722 2 2 3
0.0561297 -0.116567 -0.116567 2 2 3
0.0566145 -0.117424 -0.117424 2 2 3
0.0571111 -0.118296 -0.118296 2 2 3
0.0576197 -0.119182 -0.119182 2 2 3
0.058141 -0.120082 -0.120082 2 2 3
0.0586753 -0.120998 -0.120998 2 2 3
0.0592231 -0.121929 -0.121929 2 2 3
0.059785 -0.122876 -0.122876 2 2 3
0.0603614 -0.12384 -0.12384 2 2 3
0.060953 -0.12482 -0.12482 2 2 3
0.0615602 -0.125818 -0.125818 2 2 3
0.0621838 -0.126835 -0.126835 2 2 3
0.0628243 -0.12787 -0.12787 2 2 3
0.0634825 -0.128924 -0.128924 2 2 3
0.064159 -0.129999 -0.129999 2 2 3
0.0648547 -0.131094 -0.131094 2 2 3
0.0655702 -0.13221 -0.13221 2 2 3
0.0663065 -0.133349 -0.133349 2 2 3
0.0670645 -0.13451 -0.13451 2 2 3
0.0678449 -0.135696 -0.135696 2 2 3
0.068649 -0.136905 -0.136905 2 2 3
0.0694776 -0.13814 -0.13814 2 2 3
0.0703319 -0.139401 -0.139401 2 2 3
0.0712131 -0.14069 -0.14069 2 2 3
0.0721224 -0.142007 -0.142007 2 2 3
0.073061 -0.143353 -0.143353 2 2 3
0.0740305 -0.14473 -0.14473 2 2 3
0.0750322 -0.146138 -0.146138 2 2 3
0.0760678 -0.14758 -0.14758 2 2 3
0.0771388 -0.149055 -0.149055 2 2 3
0.0782471 -0.150566 -0.150566 2 2 3
0.0793945 -0.152114 -0.152114 2 2 3
0.0805829 -0.1537 -0.1537 2 2 3
0.0818146 -0.155327 -0.155327 2 2 3
0.0830918 -0.156995 -0.156995 2 2 3
0.0844169 -0.158707 -0.158707 2 2 3
0.0857924 -0.160464 -0.160464 2 2 3
0.087221 -0.162268 -0.162268 2 2 3
0.0887057 -0.164121 -0.164121 2 2 3
0.0902496 -0.166026 -0.166026 2 2 3
0.0918559 -0.167984 -0.167984 2 2 3
0.0935281 -0.169998 -0.169998 2 2 3
0.09527 -0.172071 -0.172071 2 2 3
0.0970856 -0.174204 -0.174204 2 2 3
0.0989791 -0.176401 -0.176401 2 2 3
0.100955 -0.178664 -0.178664 2 2 3
0.103018 -0.180996 -0.180996 2 2 3
0.105173 -0.1834 -0.1834 2 2 3
0.107426 -0.185879 -0.185879 2 2 3
0.109782 -0.188436 -0.188436 2 2 3
0.112247 -0.191075 -0.191075 2 2 3
0.114943 -0.193882 -0.193882 2 2 3
0.117652 -0.196696 -0.196696 2 2 3
0.120489 -0.1996 -0.1996 2 2 3
0.123462 -0.202598 -0.202598 2 2 3
0.126578 -0.205692 -0.205692 2 2 3
0.129844 -0.208886 -0.208886 2 2 3
0.133268 -0.212181 -0.212181 2 2 3
0.136855 -0.21558 -0.21558 2 2 3
0.140615 -0.219084 -0.219084 2 2 3
0.144552 -0.222694 -0.222694 2 2 3
0.148674 -0.226411 -0.226411 2 2 3
0.152985 -0.230235 -0.230235 2 2 3
0.157492 -0.234165 -0.234165 2 2 3
0.162197 -0.238198 -0.238198 2 2 3
0.167105 -0.242332 -0.242332 2 2 3
0.172216 -0.246564 -0.246564 2 2 3
0.177531 -0.250889 -0.250889 2 2 3
0.18305 -0.255301 -0.255301 2 2 3
0.188769 -0.259794 -0.259794 2 2 3
0.194687 -0.264362 -0.264362 2 2 3
0.200798 -0.268997 -0.268997 2 2 3
0.207096 -0.273692 -0.273692 2 2 3
0.213574 -0.278438 -0.278438 2 2 3
0.220226 -0.283229 -0.283229 2 2 3
0.227043 -0.288055 -0.288055 2 2 3
0.234017 -0.29291 -0.29291 2 2 3
0.241139 -0.297786 -0.297786 2 2 3
0.2484 -0.302676 -0.302676 2 2 3
0.255792 -0.307575 -0.307575 2 2 3
0.263182 -0.312471 -0.312471 2 2 3
0.270824 -0.317377 -0.317377 2 2 3
0.278569 -0.322273 -0.322273 2 2 3
0.286413 -0.327156 -0.327156 2 2 3
0.294349 -0.332023 -0.332023 2 2 3
0.302371 -0.336871 -0.336871 2 2 3
0.310472 -0.341697 -0.341697 2 2 3
0.318647 -0.346499 -0.346499 2 2 3
0.32689 -0.351274 -0.351274 2 2 3
0.335198 -0.356021 -0.356021 2 2 3
0.343565 -0.36074 -0.36074 2 2 3
0.351989 -0.365428 -0.365428 2 2 3
0.360464 -0.370085 -0.370085 2 2 3
0.368988 -0.37471 -0.37471 2 2 3
0.377558 -0.379304 -0.379304 2 2 3
0.386171 -0.383864 -0.383864 2 2 3
0.394824 -0.388393 -0.388393 2 2 3
0.403515 -0.392888 -0.392888 2 2 3
0.412242 -0.397351 -0.397351 2 2 3
0.421003 -0.401781 -0.401781 2 2 3
0.429796 -0.406179 -0.406179 2 2 3
0.438618 -0.410545 -0.410545 2 2 3
0.44747 -0.414878 -0.414878 2 2 3
0.456349 -0.41918 -0.41918 2 2 3
0.465254 -0.42345 -0.42345 2 2 3
0.474183 -0.42769 -0.42769 2 2 3
0.483135 -0.431898 -0.431898 2 2 3
0.49211 -0.436077 -0.436077 2 2 3
0.501107 -0.440225 -0.440225 2 2 3
0.510124 -0.444344 -0.444344 2 2 3
0.51916 -0.448434 -0.448434 2 2 3
0.528215 -0.452496 -0.452496 2 2 3
0.537288 -0.456529 -0.456529 2 2 3
0.546378 -0.460535 -0.460535 2 2 3
0.555485 -0.464513 -0.464513 2 2 3
0.564608 -0.468464 -0.468464 2 2 3
0.573746 -0.472388 -0.472388 2 2 3
0.582898 -0.476287 -0.476287 2 2 3
0.592065 -0.48016 -0.48016 2 2 3
0.601246 -0.484008 -0.484008 2 2 3
0.61044 -0.48783 -0.48783 2 2 3
0.619647 -0.491629 -0.491629 2 2 3
0.628866 -0.495403 -0.495403 2 2 3
0.638097 -0.499153 -0.499153 2 2 3
0.64734 -0.502881 -0.502881 2 2 3
0.656593 -0.506585 -0.506585 2 2 3
0.665858 -0.510266 -0.510266 2 2 3
0.675133 -0.513926 -0.513926 2 2 3
0.684419 -0.517563 -0.517563 2 2 3
0.693714 -0.521179 -0.521179 2 2 3
0.70302 -0.524774 -0.524774 2 2 3
0.712334 -0.528348 -0.528348 2 2 3
0.721658 -0.531902 -0.531902 2 2 3
0.73099 -0.535435 -0.535435 2 2 3
0.740331 -0.538948 -0.538948 2 2 3
0.749681 -0.542442 -0.542442 2 2 3
0.759038 -0.545916 -0.545916 2 2 3
0.768404 -0.549371 -0.549371 2 2 3
0.777777 -0.552807 -0.552807 2 2 3
0.787158 -0.556225 -0.556225 2 2 3
0.796547 -0.559625 -0.559625 2 2 3
0.805942 -0.563007 -0.563007 2 2 3
0.815345 -0.566371 -0.566371 2 2 3
0.824754 -0.569718 -0.569718 2 2 3
0.834171 -0.573047 -0.573047 2 2 3
0.843593 -0.57636 -0.57636 2 2 3
0.853022 -0.579656 -0.579656 2 2 3
0.862458 -0.582935 -0.582935 2 2 3
0.871899 -0.586198 -0.586198 2 2 3
0.881347 -0.589446 -0.589446 2 2 3
0.8908 -0.592677 -0.592677 2 2 3
0.900259 -0.595893 -0.595893 2 2 3
0.909724 -0.599093 -0.599093 2 2 3
0.919194 -0.602278 -0.602278 2 2 3
0.92867 -0.605449 -0.605449 2 2 3
0.93815 -0.608604 -0.608604 2 2 3
0.947636 -0.611745 -0.611745 2 2 3
0.957127 -0.614872 -0.614872 2 2 3
0.966623 -0.617984 -0.617984 2 2 3
0.976124 -0.621083 -0.621083 2 2 3
0.98563 -0.624167 -0.624167 2 2 3
0.99514 -0.627238 -0.627238 2 2 3
1.00465 -0.630295 -0.630295 2 2 3
0.0525486 0.11 0.11 2 2 3
0.0529476 0.110754 0.110754 2 2 3
0.0533548 0.111518 0.111518 2 2 3
0.0537727 0.112295 0.112295 2 2 3
0.0542023 0.113087 0.113087 2 2 3
0.0546418 0.11389 0.11389 2 2 3
0.0550914 0.114706 0.114706 2 2 3
0.0555515 0.115534 0.115534 2 2 3
0.0560224 0.116376 0.116376 2 2 3
0.0565047 0.117231 0.117231 2 2 3
0.0569985 0.118099 0.118099 2 2 3
0.0575044 0.118982 0.118982 2 2 3
0.0580228 0.119879 0.119879 2 2 3
0.0585542 0.120791 0.120791 2 2 3
0.0590989 0.121718 0.121718 2 2 3
0.0596576 0.122662 0.122662 2 2 3
0.0602307 0.123622 0.123622 2 2 3
0.0608188 0.124598 0.124598 2 2 3
0.0614225 0.125593 0.125593 2 2 3
0.0620423 0.126605 0.126605 2 2 3
0.062679 0.127636 0.127636 2 2 3
0.0633331 0.128686 0.128686 2 2 3
0.0640055 0.129756 0.129756 2 2 3
0.0646968 0.130846 0.130846 2 2 3
0.0654078 0.131958 0.131958 2 2 3
0.0661393 0.133091 0.133091 2 2 3
0.0668923 0.134248 0.134248 2 2 3
0.0676677 0.135427 0.135427 2 2 3
0.0684663 0.136631 0.136631 2 2 3
0.0692893 0.137861 0.137861 2 2 3
0.0701378 0.139116 0.139116 2 2 3
0.0710128 0.140398 0.140398 2 2 3
0.0719157 0.141709 0.141709 2 2 3
0.0728476 0.143048 0.143048 2 2 3
0.07381 0.144418 0.144418 2 2 3
0.0748044 0.145819 0.145819 2 2 3
0.0758322 0.147253 0.147253 2 2 3
0.0768951 0.148721 0.148721 2 2 3
0.0779948 0.150223 0.150223 2 2 3
0.0791333 0.151763 0.151763 2 2 3
0.0803123 0.153341 0.153341 2 2 3
0.0815342 0.154958 0.154958 2 2 3
0.0828009 0.156617 0.156617 2 2 3
0.084115 0.158318 0.158318 2 2 3
0.0854789 0.160065 0.160065 2 2 3
0.0868954 0.161858 0.161858 2 2 3
0.0883673 0.163701 0.163701 2 2 3
0.0898976 0.165594 0.165594 2 2 3
0.0914895 0.16754 0.16754 2 2 3
0.0931466 0.169541 0.169541 2 2 3
0.0948726 0.1716 0.1716 2 2 3
0.0966712 0.173719 0.173719 2 2 3
0.0985468 0.175902 0.175902 2 2 3
0.100504 0.17815 0.17815 2 2 3
0.102547 0.180466 0.180466 2 2 3
0.104681 0.182854 0.182854 2 2 3
0.106911 0.185316 0.185316 2 2 3
0.109244 0.187855 0.187855 2 2 3
0.111684 0.190475 0.190475 2 2 3
0.114352 0.193263 0.193263 2 2 3
0.117033 0.196056 0.196056 2 2 3
0.11984 0.19894 0.19894 2 2 3
0.122782 0.201916 0.201916 2 2 3
0.125866 0.204989 0.204989 2 2 3
0.129097 0.20816 0.20816 2 2 3
0.132485 0.211432 0.211432 2 2 3
0.136035 0.214807 0.214807 2 2 3
0.139755 0.218287 0.218287 2 2 3
0.143652 0.221874 0.221874 2 2 3
0.147731 0.225567 0.225567 2 2 3
0.152 0.229367 0.229367 2 2 3
0.156462 0.233273 0.233273 2 2 3
0.161123 0.237283 0.237283 2 2 3
0.165985 0.241395 0.241395 2 2 3
0.17105 0.245605 0.245605 2 2 3
0.17632 0.249909 0.249909 2 2 3
0.181793 0.254302 0.254302 2 2 3
0.187467 0.258778 0.258778 2 2 3
0.193341 0.26333 0.26333 2 2 3
0.199409 0.267951 0.267951 2 2 3
0.205665 0.272633 0.272633 2 2 3
0.212104 0.277368 0.277368 2 2 3
0.218717 0.282149 0.282149 2 2 3
0.225498 0.286968 0.286968 2 2 3
0.232437 0.291817 0.291817 2 2 3
0.239527 0.296689 0.296689 2 2 3
0.246757 0.301577 0.301577 2 2 3
0.254121 0.306474 0.306474 2 2 3
0.261609 0.311374 0.311374 2 2 3
0.269095 0.316274 0.316274 2 2 3
0.276819 0.321173 0.321173 2 2 3
0.284642 0.32606 0.32606 2 2 3
0.292558 0.330931 0.330931 2 2 3
0.30056 0.335783 0.335783 2 2 3
0.308644 0.340614 0.340614 2 2 3
0.316803 0.345421 0.345421 2 2 3
0.325031 0.350203 0.350203 2 2 3
0.333325 0.354956 0.354956 2 2 3
0.341679 0.359681 0.359681 2 2 3
0.35009 0.364376 0.364376 2 2 3
0.358554 0.36904 0.36904 2 2 3
0.367068 0.373673 0.373673 2 2 3
0.375627 0.378274 0.378274 2 2 3
0.384231 0.382842 0.382842 2 2 3
0.392875 0.387378 0.387378 2 2 3
0.401558 0.39188 0.39188 2 2 3
0.410277 0.396351 0.396351 2 2 3
0.41903 0.400788 0.400788 2 2 3
0.427816 0.405193 0.405193 2 2 3
0.436632 0.409566 0.409566 2 2 3
0.445478 0.413907 0.413907 2 2 3
0.45435 0.418216 0.418216 2 2 3
0.463249 0.422493 0.422493 2 2 3
0.472173 0.426739 0.426739 2 2 3
0.481121 0.430955 0.430955 2 2 3
0.490091 0.43514 0.43514 2 2 3
0.499082 0.439295 0.439295 2 2 3
0.508095 0.443421 0.443421 2 2 3
0.517127 0.447517 0.447517 2 2 3
0.526178 0.451585 0.451585 2 2 3
0.535247 0.455625 0.455625 2 2 3
0.544333 0.459636 0.459636 2 2 3
0.553436 0.463621 0.463621 2 2 3
0.562555 0.467578 0.467578 2 2 3
0.57169 0.471508 0.471508 2 2 3
0.580839 0.475413 0.475413 2 2 3
0.590003 0.479291 0.479291 2 2 3
0.599181 0.483145 0.483145 2 2 3
0.608372 0.486973 0.486973 2 2 3
0.617576 0.490777 0.490777 2 2 3
0.626792 0.494556 0.494556 2 2 3
0.636021 0.498312 0.498312 2 2 3
0.645261 0.502045 0.502045 2 2 3
0.654512 0.505754 0.505754 2 2 3
0.663774 0.509441 0.509441 2 2 3
0.673047 0.513105 0.513105 2 2 3
0.682331 0.516748 0.516748 2 2 3
0.691624 0.520368 0.520368 2 2 3
0.700927 0.523968 0.523968 2 2 3
0.710239 0.527547 0.527547 2 2 3
0.719561 0.531105 0.531105 2 2 3
0.728891 0.534642 0.534642 2 2 3
0.73823 0.53816 0.53816 2 2 3
0.747578 0.541658 0.541658 2 2 3
0.756934 0.545136 0.545136 2 2 3
0.766298 0.548596 0.548596 2 2 3
0.775669 0.552037 0.552037 2 2 3
0.785049 0.555459 0.555459 2 2 3
0.794435 0.558862 0.558862 2 2 3
0.803829 0.562248 0.562248 2 2 3
0.81323 0.565616 0.565616 2 2 3
0.822638 0.568967 0.568967 2 2 3
0.832053 0.5723 0.5723 2 2 3
0.841474 0.575617 0.575617 2 2 3
0.850902 0.578916 0.578916 2 2 3
0.860336 0.582199 0.582199 2 2 3
0.869776 0.585466 0.585466 2 2 3
0.879222 0.588717 0.588717 2 2 3
0.888674 0.591952 0.591952 2 2 3
0.898132 0.595171 0.595171 2 2 3
0.907595 0.598375 0.598375 2 2 3
0.917064 0.601564 0.601564 2 2 3
0.926539 0.604737 0.604737 2 2 3
0.936018 0.607896 0.607896 2 2 3
0.945503 0.61104 0.61104 2 2 3
0.954993 0.61417 0.61417 2 2 3
0.964488 0.617286 0.617286 2 2 3
0.973988 0.620387 0.620387 2 2 3
0.983492 0.623475 0.623475 2 2 3
0.993002 0.626549 0.626549 2 2 3
1.00252 0.629609 0.629609 2 2 3
0.45484 0.11 0.11 2 3 3
0.4604 0.111319 0.111319 2 3 3
0.466031 0.112644 0.112644 2 3 3
0.471766 0.113975 0.113975 2 3 3
0.477611 0.115314 0.115314 2 3 3
0.483544 0.116657 0.116657 2 3 3
0.489567 0.118007 0.118007 2 3 3
0.49568 0.119362 0.119362 2 3 3
0.501884 0.120723 0.120723 2 3 3
0.508179 0.12209 0.12209 2 3 3
0.514567 0.123462 0.123462 2 3 3
0.521047 0.124839 0.124839 2 3 3
0.527619 0.126222 0.126222 2 3 3
0.534284 0.12761 0.12761 2 3 3
0.541041 0.129002 0.129002 2 3 3
0.54789 0.1304 0.1304 2 3 3
0.554831 0.131802 0.131802 2 3 3
0.561863 0.133208 0.133208 2 3 3
0.568986 0.134618 0.134618 2 3 3
0.576198 0.136032 0.136032 2 3 3
0.583499 0.137449 0.137449 2 3 3
0.590888 0.138869 0.138869 2 3 3
0.598363 0.140292 0.140292 2 3 3
0.605923 0.141718 0.141718 2 3 3
0.613567 0.143145 0.143145 2 3 3
0.621292 0.144575 0.144575 2 3 3
0.629099 0.146005 0.146005 2 3 3
0.636984 0.147437 0.147437 2 3 3
0.644945 0.148869 0.148869 2 3 3
0.652982 0.150302 0.150302 2 3 3
0.661092 0.151734 0.151734 2 3 3
0.669273 0.153167 0.153167 2 3 3
0.677523 0.154598 0.154598 2 3 3
0.685839 0.156028 0.156028 2 3 3
0.694221 0.157457 0.157457 2 3 3
0.702666 0.158884 0.158884 2 3 3
0.711171 0.16031 0.16031 2 3 3
0.719735 0.161732 0.161732 2 3 3
0.728355 0.163152 0.163152 2 3 3
0.73703 0.16457 0.16457 2 3 3
0.745757 0.165984 0.165984 2 3 3
0.754535 0.167395 0.167395 2 3 3
0.763362 0.168802 0.168802 2 3 3
0.772235 0.170205 0.170205 2 3 3
0.781153 0.171604 0.171604 2 3 3
0.790114 0.172999 0.172999 2 3 3
0.799117 0.174389 0.174389 2 3 3
0.808158 0.175775 0.175775 2 3 3
0.817238 0.177156 0.177156 2 3 3
0.826354 0.178533 0.178533 2 3 3
0.835504 0.179904 0.179904 2 3 3
0.844688 0.18127 0.18127 2 3 3
0.853903 0.182631 0.182631 2 3 3
0.863149 0.183987 0.183987 2 3 3
0.872424 0.185337 0.185337 2 3 3
0.881727 0.186682 0.186682 2 3 3
0.891056 0.188021 0.188021 2 3 3
0.90041 0.189355 0.189355 2 3 3
0.909789 0.190683 0.190683 2 3 3
0.919191 0.192005 0.192005 2 3 3
0.928615 0.193322 0.193322 2 3 3
0.93806 0.194632 0.194632 2 3 3
0.947525 0.195937 0.195937 2 3 3
0.95701 0.197237 0.197237 2 3 3
0.966513 0.19853 0.19853 2 3 3
0.976033 0.199818 0.199818 2 3 3
0.985571 0.2011 0.2011 2 3 3
0.995124 0.202376 0.202376 2 3 3
1.00469 0.203647 0.203647 2 3 3
0.45484 0.11 0.11 2 3 3
0.449313 0.108681 0.108681 2 3 3
0.443854 0.107368 0.107368 2 3 3
0.438497 0.106061 0.106061 2 3 3
0.433241 0.10476 0.10476 2 3 3
0.428063 0.103464 0.103464 2 3 3
0.422962 0.102172 0.102172 2 3 3
0.417936 0.100884 0.100884 2 3 3
0.412985 0.0996006 0.0996006 2 3 3
0.408106 0.0983207 0.0983207 2 3 3
0.403297 0.0970441 0.0970441 2 3 3
0.398558 0.0957705 0.0957705 2 3 3
0.393886 0.0944997 0.0944997 2 3 3
0.38928 0.0932311 0.0932311 2 3 3
0.384738 0.0919646 0.0919646 2 3 3
0.380258 0.0906996 0.0906996 2 3 3
0.375839 0.0894357 0.0894357 2 3 3
0.371479 0.0881725 0.0881725 2 3 3
0.367177 0.0869094 0.0869094 2 3 3
0.36293 0.0856462 0.0856462 2 3 3
0.358738 0.0843821 0.0843821 2 3 3
0.354598 0.0831166 0.0831166 2 3 3
0.35051 0.0818493 0.0818493 2 3 3
0.34647 0.0805794 0.0805794 2 3 3
0.342479 0.0793064 0.0793064 2 3 3
0.338535 0.0780297 0.0780297 2 3 3
0.334635 0.0767484 0.0767484 2 3 3
0.330778 0.0754619 0.0754619 2 3 3
0.326964 0.0741694 0.0741694 2 3 3
0.32319 0.07287 0.07287 2 3 3
0.319455 0.071563 0.071563 2 3 3
0.315758 0.0702473 0.0702473 2 3 3
0.312097 0.0689219 0.0689219 2 3 3
0.308471 0.0675858 0.0675858 2 3 3
0.304879 0.0662378 0.0662378 2 3 3
0.301318 0.0648767 0.0648767 2 3 3
0.297789 0.063501 0.063501 2 3 3
0.294289 0.0621095 0.0621095 2 3 3
0.290818 0.0607003 0.0607003 2 3 3
0.287374 0.0592719 0.0592719 2 3 3
0.283955 0.0578222 0.0578222 2 3 3
0.280561 0.0563491 0.0563491 2 3 3
0.277191 0.0548503 0.0548503 2 3 3
0.273843 0.053323 0.053323 2 3 3
0.270516 0.0517642 0.0517642 2 3 3
0.267209 0.0501706 0.0501706 2 3 3
0.263921 0.0485382 0.0485382 2 3 3
0.260651 0.0468626 0.0468626 2 3 3
0.257397 0.0451385 0.0451385 2 3 3
0.25416 0.0433598 0.0433598 2 3 3
0.250938 0.0415191 0.0415191 2 3 3
0.24773 0.0396077 0.0396077 2 3 3
0.244536 0.0376147 0.0376147 2 3 3
0.241356 0.0355268 0.0355268 2 3 3
0.238189 0.0333267 0.0333267 2 3 3
0.235037 0.0309922 0.0309922 2 3 3
0.231901 0.0284929 0.0284929 2 3 3
0.228784 0.0257867 0.0257867 2 3 3
0.22572 0.0225167 0.0225167 2 3 3
0.22268 0.0190541 0.0190541 2 3 3
0.219719 0.0149487 0.0149487 2 3 3
0.216939 0.00967116 0.00967116 2 3 3
0.215029 0.00162436 0.00162436 2 3 3
0.216221 -0.00774454 -0.00774454 2 3 3
0.218897 -0.0136107 -0.0136107 2 3 3
0.221808 -0.0179815 -0.0179815 2 3 3
0.2248 -0.0215353 -0.0215353 2 3 3
0.227867 -0.0246798 -0.0246798 2 3 3
0.23097 -0.0275097 -0.0275097 2 3 3
0.234097 -0.0301019 -0.0301019 2 3 3
0.237223 -0.032694 -0.032694 2 3 3
0.240389 -0.0349168 -0.0349168 2 3 3
0.243566 -0.0370251 -0.0370251 2 3 3
0.246757 -0.0390376 -0.0390376 2 3 3
0.249961 -0.0409671 -0.0409671 2 3 3
0.253179 -0.0428242 -0.0428242 2 3 3
0.256412 -0.0446178 -0.0446178 2 3 3
0.25966 -0.0463555 -0.0463555 2 3 3
0.262925 -0.0480434 -0.0480434 2 3 3
0.266208 -0.049687 -0.049687 2 3 3
0.269509 -0.0512908 -0.0512908 2 3 3
0.27283 -0.0528588 -0.0528588 2 3 3
0.276172 -0.0543945 -0.0543945 2 3 3
0.279535 -0.055901 -0.055901 2 3 3
0.282922 -0.0573811 -0.0573811 2 3 3
0.286333 -0.0588372 -0.0588372 2 3 3
0.289769 -0.0602715 -0.0602715 2 3 3
0.293232 -0.061686 -0.061686 2 3 3
0.296723 -0.0630824 -0.0630824 2 3 3
0.300244 -0.0644624 -0.0644624 2 3 3
0.303794 -0.0658276 -0.0658276 2 3 3
0.307377 -0.0671792 -0.0671792 2 3 3
0.310992 -0.0685187 -0.0685187 2 3 3
0.314643 -0.069847 -0.069847 2 3 3
0.318329 -0.0711654 -0.0711654 2 3 3
0.322052 -0.0724749 -0.0724749 2 3 3
0.325814 -0.0737764 -0.0737764 2 3 3
0.329616 -0.0750708 -0.0750708 2 3 3
0.333459 -0.0763589 -0.0763589 2 3 3
0.337346 -0.0776416 -0.0776416 2 3 3
0.341277 -0.0789196 -0.0789196 2 3 3
0.345254 -0.0801936 -0.0801936 2 3 3
0.349278 -0.0814643 -0.0814643 2 3 3
0.353351 -0.0827323 -0.0827323 2 3 3
0.357475 -0.0839982 -0.0839982 2 3 3
0.361651 -0.0852625 -0.0852625 2 3 3
0.365881 -0.086526 -0.086526 2 3 3
0.370167 -0.087789 -0.087789 2 3 3
0.374509 -0.089052 -0.089052 2 3 3
0.37891 -0.0903156 -0.0903156 2 3 3
0.383371 -0.0915802 -0.0915802 2 3 3
0.387894 -0.0928462 -0.0928462 2 3 3
0.39248 -0.094114 -0.094114 2 3 3
0.397132 -0.0953841 -0.0953841 2 3 3
0.401851 -0.0966567 -0.0966567 2 3 3
0.406638 -0.0979324 -0.0979324 2 3 3
0.411495 -0.0992112 -0.0992112 2 3 3
0.416425 -0.100494 -0.100494 2 3 3
0.421427 -0.10178 -0.10178 2 3 3
0.426505 -0.10307 -0.10307 2 3 3
0.431659 -0.104365 -0.104365 2 3 3
0.436891 -0.105665 -0.105665 2 3 3
0.442203 -0.106969 -0.106969 2 3 3
0.447596 -0.108279 -0.108279 2 3 3
0.453072 -0.109593 -0.109593 2 3 3
0.458631 -0.110913 -0.110913 2 3 3
0.464275 -0.112238 -0.112238 2 3 3
0.470006 -0.113569 -0.113569 2 3 3
0.475823 -0.114906 -0.114906 2 3 3
0.481729 -0.116248 -0.116248 2 3 3
0.487725 -0.117596 -0.117596 2 3 3
0.49381 -0.118949 -0.118949 2 3 3
0.499986 -0.120309 -0.120309 2 3 3
0.506254 -0.121673 -0.121673 2 3 3
0.512614 -0.123044 -0.123044 2 3 3
0.519065 -0.12442 -0.12442 2 3 3
0.525609 -0.125801 -0.125801 2 3 3
0.532246 -0.127187 -0.127187 2 3 3
0.538975 -0.128578 -0.128578 2 3 3
0.545796 -0.129974 -0.129974 2 3 3
0.552709 -0.131375 -0.131375 2 3 3
0.559714 -0.13278 -0.13278 2 3 3
0.566809 -0.134189 -0.134189 2 3 3
0.573994 -0.135601 -0.135601 2 3 3
0.581268 -0.137017 -0.137017 2 3 3
0.58863 -0.138437 -0.138437 2 3 3
0.596079 -0.139859 -0.139859 2 3 3
0.603614 -0.141284 -0.141284 2 3 3
0.611232 -0.142711 -0.142711 2 3 3
0.618933 -0.14414 -0.14414 2 3 3
0.626715 -0.14557 -0.14557 2 3 3
0.634576 -0.147001 -0.147001 2 3 3
0.642515 -0.148433 -0.148433 2 3 3
0.650529 -0.149866 -0.149866 2 3 3
0.658617 -0.151299 -0.151299 2 3 3
0.666776 -0.152731 -0.152731 2 3 3
0.675005 -0.154163 -0.154163 2 3 3
0.683302 -0.155593 -0.155593 2 3 3
0.691664 -0.157023 -0.157023 2 3 3
0.70009 -0.15845 -0.15845 2 3 3
0.708577 -0.159876 -0.159876 2 3 3
0.717123 -0.1613 -0.1613 2 3 3
0.725726 -0.162721 -0.162721 2 3 3
0.734385 -0.164139 -0.164139 2 3 3
0.743097 -0.165554 -0.165554 2 3 3
0.751859 -0.166966 -0.166966 2 3 3
0.760671 -0.168374 -0.168374 2 3 3
0.769531 -0.169778 -0.169778 2 3 3
0.778435 -0.171179 -0.171179 2 3 3
0.787383 -0.172575 -0.172575 2 3 3
0.796373 -0.173967 -0.173967 2 3 3
0.805403 -0.175354 -0.175354 2 3 3
0.814472 -0.176737 -0.176737 2 3 3
0.823576 -0.178115 -0.178115 2 3 3
0.832717 -0.179487 -0.179487 2 3 3
0.84189 -0.180855 -0.180855 2 3 3
0.851096 -0.182218 -0.182218 2 3 3
0.860333 -0.183575 -0.183575 2 3 3
0.869599 -0.184927 -0.184927 2 3 3
0.878894 -0.186273 -0.186273 2 3 3
0.888215 -0.187614 -0.187614 2 3 3
0.897562 -0.188949 -0.188949 2 3 3
0.906933 -0.190279 -0.190279 2 3 3
0.916328 -0.191603 -0.191603 2 3 3
0.925745 -0.192922 -0.192922 2 3 3
0.935184 -0.194234 -0.194234 2 3 3
0.944643 -0.195541 -0.195541 2 3 3
0.954122 -0.196842 -0.196842 2 3 3
0.963619 -0.198137 -0.198137 2 3 3
0.973135 -0.199427 -0.199427 2 3 3
0.982667 -0.200711 -0.200711 2 3 3
0.992216 -0.201989 -0.201989 2 3 3
1.00178 -0.203261 -0.203261 2 3 3
