0.0974721 0.1 0.1 2 3 6
0.0974731 0.1 0.1 2 3 6
0.0974731 0.1 0.1 2 3 6
0.0974731 0.1 0.1 2 3 6
0.0974731 0.1 0.1 2 3 6
0.0974731 0.1 0.1 2 3 6
0.0975507 0.100579 0.100579 2 3 6
0.0977048 0.101745 0.101745 2 3 6
0.0980085 0.104111 0.104111 2 3 6
0.0984524 0.107743 0.107743 2 3 6
0.0990899 0.113384 0.113384 2 3 6
0.099754 0.119918 0.119918 2 3 6
0.100367 0.126729 0.126729 2 3 6
0.100924 0.133811 0.133811 2 3 6
0.10142 0.141155 0.141155 2 3 6
0.101854 0.148751 0.148751 2 3 6
0.10222 0.156586 0.156586 2 3 6
0.102519 0.164646 0.164646 2 3 6
0.102747 0.172916 0.172916 2 3 6
0.102905 0.181378 0.181378 2 3 6
0.102992 0.190016 0.190016 2 3 6
0.103009 0.198813 0.198813 2 3 6
0.102958 0.207752 0.207752 2 3 6
0.10284 0.216816 0.216816 2 3 6
0.102657 0.22599 0.22599 2 3 6
0.102412 0.235259 0.235259 2 3 6
0.102108 0.244608 0.244608 2 3 6
0.101747 0.254026 0.254026 2 3 6
0.101332 0.263501 0.263501 2 3 6
0.100868 0.273022 0.273022 2 3 6
0.100356 0.282579 0.282579 2 3 6
0.0998001 0.292163 0.292163 2 3 6
0.0992031 0.301768 0.301768 2 3 6
0.0985679 0.311386 0.311386 2 3 6
0.0978975 0.32101 0.32101 2 3 6
0.0971945 0.330636 0.330636 2 3 6
0.0964617 0.340258 0.340258 2 3 6
0.0957015 0.349872 0.349872 2 3 6
0.0949163 0.359475 0.359475 2 3 6
0.0941085 0.369062 0.369062 2 3 6
0.0932802 0.378632 0.378632 2 3 6
0.0924334 0.388182 0.388182 2 3 6
0.0915702 0.397709 0.397709 2 3 6
0.0906922 0.407212 0.407212 2 3 6
0.0898014 0.416688 0.416688 2 3 6
0.0888992 0.426137 0.426137 2 3 6
0.0879873 0.435558 0.435558 2 3 6
0.0870671 0.444948 0.444948 2 3 6
0.08614 0.454309 0.454309 2 3 6
0.0852071 0.463638 0.463638 2 3 6
0.0842699 0.472935 0.472935 2 3 6
0.0833293 0.482201 0.482201 2 3 6
0.0823865 0.491434 0.491434 2 3 6
0.0814424 0.500634 0.500634 2 3 6
0.080498 0.509802 0.509802 2 3 6
0.0795542 0.518938 0.518938 2 3 6
0.0786117 0.528041 0.528041 2 3 6
0.0776715 0.537111 0.537111 2 3 6
0.0767341 0.546149 0.546149 2 3 6
0.0758003 0.555156 0.555156 2 3 6
0.0748707 0.564131 0.564131 2 3 6
0.0739459 0.573075 0.573075 2 3 6
0.0730264 0.581988 0.581988 2 3 6
0.0721127 0.590871 0.590871 2 3 6
0.0712053 0.599724 0.599724 2 3 6
0.0703048 0.608548 0.608548 2 3 6
0.0694113 0.617343 0.617343 2 3 6
0.0685253 0.62611 0.62611 2 3 6
0.0676473 0.63485 0.63485 2 3 6
0.0667774 0.643564 0.643564 2 3 6
0.0659159 0.652251 0.652251 2 3 6
0.0650633 0.660913 0.660913 2 3 6
0.0642195 0.66955 0.66955 2 3 6
0.063385 0.678163 0.678163 2 3 6
0.0625599 0.686753 0.686753 2 3 6
0.0617443 0.69532 0.69532 2 3 6
0.0609384 0.703866 0.703866 2 3 6
0.0601423 0.71239 0.71239 2 3 6
0.0593563 0.720895 0.720895 2 3 6
0.0585803 0.72938 0.72938 2 3 6
0.0578144 0.737846 0.737846 2 3 6
0.0570588 0.746295 0.746295 2 3 6
0.0563134 0.754726 0.754726 2 3 6
0.0555784 0.763141 0.763141 2 3 6
0.0548537 0.77154 0.77154 2 3 6
0.0541393 0.779924 0.779924 2 3 6
0.0534354 0.788294 0.788294 2 3 6
0.0527418 0.796651 0.796651 2 3 6
0.0520586 0.804996 0.804996 2 3 6
0.0513857 0.813328 0.813328 2 3 6
0.0507231 0.821649 0.821649 2 3 6
0.0500708 0.82996 0.82996 2 3 6
0.0494287 0.838262 0.838262 2 3 6
0.0487968 0.846554 0.846554 2 3 6
0.048175 0.854838 0.854838 2 3 6
0.0475632 0.863114 0.863114 2 3 6
0.0469614 0.871384 0.871384 2 3 6
0.0463695 0.879648 0.879648 2 3 6
0.0457874 0.887906 0.887906 2 3 6
0.045215 0.896159 0.896159 2 3 6
0.0446522 0.904408 0.904408 2 3 6
0.044099 0.912654 0.912654 2 3 6
0.0435552 0.920896 0.920896 2 3 6
0.0430207 0.929137 0.929137 2 3 6
0.0424955 0.937376 0.937376 2 3 6
0.0419794 0.945613 0.945613 2 3 6
0.0414723 0.953851 0.953851 2 3 6
0.0409741 0.962088 0.962088 2 3 6
0.0404848 0.970327 0.970327 2 3 6
0.040004 0.978566 0.978566 2 3 6
0.0395319 0.986808 0.986808 2 3 6
0.0390682 0.995052 0.995052 2 3 6
0.0386128 1.0033 1.0033 2 3 6
0.0381657 1.01155 1.01155 2 3 6
0.0377266 1.0198 1.0198 2 3 6
0.0372956 1.02806 1.02806 2 3 6
0.0368723 1.03633 1.03633 2 3 6
0.0364569 1.0446 1.0446 2 3 6
0.036049 1.05287 1.05287 2 3 6
0.0356486 1.06116 1.06116 2 3 6
0.0352557 1.06945 1.06945 2 3 6
0.03487 1.07774 1.07774 2 3 6
0.0344914 1.08605 1.08605 2 3 6
0.0341199 1.09436 1.09436 2 3 6
0.0337553 1.10269 1.10269 2 3 6
0.0333975 1.11102 1.11102 2 3 6
0.0330464 1.11936 1.11936 2 3 6
0.0327018 1.12771 1.12771 2 3 6
0.0323638 1.13608 1.13608 2 3 6
0.032032 1.14445 1.14445 2 3 6
0.0317066 1.15284 1.15284 2 3 6
0.0313872 1.16124 1.16124 2 3 6
0.0310739 1.16965 1.16965 2 3 6
0.0307666 1.17807 1.17807 2 3 6
0.030465 1.1865 1.1865 2 3 6
0.0301692 1.19495 1.19495 2 3 6
0.0298789 1.20342 1.20342 2 3 6
0.0295942 1.21189 1.21189 2 3 6
0.029315 1.22038 1.22038 2 3 6
0.029041 1.22889 1.22889 2 3 6
0.0287722 1.23741 1.23741 2 3 6
0.0285086 1.24595 1.24595 2 3 6
0.0974721 1.24595 1.24595 2 4 6
0.0974731 1.24595 1.24595 2 4 6
0.0974731 1.24595 1.24595 2 4 6
0.0974731 1.24595 1.24595 2 4 6
0.0974731 1.24595 1.24595 2 4 6
0.0974731 0.1 0.1 2 4 6
0.0973952 0.099424 0.099424 2 4 6
0.0972383 0.0982802 0.0982802 2 4 6
0.0969205 0.0960257 0.0960257 2 4 6
0.0964345 0.0927261 0.0927261 2 4 6
0.0956864 0.0879594 0.0879594 2 4 6
0.0948324 0.0829159 0.0829159 2 4 6
0.0939592 0.0781323 0.0781323 2 4 6
0.0930715 0.0736006 0.0736006 2 4 6
0.0921733 0.0693114 0.0693114 2 4 6
0.0912686 0.0652548 0.0652548 2 4 6
0.0903607 0.0614206 0.0614206 2 4 6
0.0894528 0.0577986 0.0577986 2 4 6
0.0885477 0.0543784 0.0543784 2 4 6
0.0876479 0.0511498 0.0511498 2 4 6
0.0867554 0.048103 0.048103 2 4 6
0.0858722 0.0452283 0.0452283 2 4 6
0.0849998 0.0425167 0.0425167 2 4 6
0.0841396 0.0399593 0.0399593 2 4 6
0.0832927 0.0375476 0.0375476 2 4 6
0.0824601 0.0352737 0.0352737 2 4 6
0.0816425 0.03313 0.03313 2 4 6
0.0808405 0.0311093 0.0311093 2 4 6
0.0800545 0.0292048 0.0292048 2 4 6
0.0792849 0.0274101 0.0274101 2 4 6
0.0785319 0.025719 0.025719 2 4 6
0.0777955 0.0241257 0.0241257 2 4 6
0.0770759 0.0226248 0.0226248 2 4 6
0.0763728 0.0212109 0.0212109 2 4 6
0.0756863 0.0198793 0.0198793 2 4 6
0.075016 0.0186251 0.0186251 2 4 6
0.0743617 0.0174439 0.0174439 2 4 6
0.0737232 0.0163315 0.0163315 2 4 6
0.0731 0.0152838 0.0152838 2 4 6
0.0724919 0.0142971 0.0142971 2 4 6
0.0718984 0.0133677 0.0133677 2 4 6
0.0713191 0.0124922 0.0124922 2 4 6
0.0707536 0.0116674 0.0116674 2 4 6
0.0702015 0.0108902 0.0108902 2 4 6
0.0696623 0.0101577 0.0101577 2 4 6
0.0691356 0.00946718 0.00946718 2 4 6
0.068621 0.008816 0.008816 2 4 6
0.0681181 0.00820176 0.00820176 2 4 6
0.0676264 0.00762217 0.00762217 2 4 6
0.0671456 0.00707508 0.00707508 2 4 6
0.0666751 0.00655845 0.00655845 2 4 6
0.0662148 0.0060704 0.0060704 2 4 6
0.0657641 0.00560913 0.00560913 2 4 6
0.0653227 0.00517298 0.00517298 2 4 6
0.0648904 0.00476037 0.00476037 2 4 6
0.0644667 0.00436986 0.00436986 2 4 6
0.0640513 0.00400006 0.00400006 2 4 6
0.063644 0.0036497 0.0036497 2 4 6
0.0632444 0.00331758 0.00331758 2 4 6
0.0628523 0.00300257 0.00300257 2 4 6
0.0624674 0.00270364 0.00270364 2 4 6
0.0620895 0.0024198 0.0024198 2 4 6
0.0617182 0.00215015 0.00215015 2 4 6
0.0613535 0.00189382 0.00189382 2 4 6
0.0609951 0.00165003 0.00165003 2 4 6
0.0606427 0.00141804 0.00141804 2 4 6
0.0602963 0.00119714 0.00119714 2 4 6
0.0599555 0.000986689 0.000986689 2 4 6
0.0596202 0.000786084 0.000786084 2 4 6
0.0592903 0.000594758 0.000594758 2 4 6
0.0589657 0.000412182 0.000412182 2 4 6
0.058646 0.000237861 0.000237861 2 4 6
0.0583313 7.1333e-05 7.1333e-05 2 4 6
0.0580213 -8.78335e-05 -8.78335e-05 2 4 6
0.057716 -0.000240043 -0.000240043 2 4 6
0.0574153 -0.000385674 -0.000385674 2 4 6
0.057119 -0.000525079 -0.000525079 2 4 6
0.056827 -0.000658591 -0.000658591 2 4 6
0.0565392 -0.000786518 -0.000786518 2 4 6
0.0562556 -0.000909152 -0.000909152 2 4 6
0.0559761 -0.00102676 -0.00102676 2 4 6
0.0557006 -0.00113961 -0.00113961 2 4 6
0.055429 -0.00124792 -0.00124792 2 4 6
0.0551613 -0.00135193 -0.00135193 2 4 6
0.0548975 -0.00145184 -0.00145184 2 4 6
0.0546375 -0.00154785 -0.00154785 2 4 6
0.0543813 -0.00164013 -0.00164013 2 4 6
0.0541289 -0.00172887 -0.00172887 2 4 6
0.0538802 -0.00181421 -0.00181421 2 4 6
0.0536354 -0.0018963 -0.0018963 2 4 6
0.0533944 -0.00197528 -0.00197528 2 4 6
0.0531574 -0.00205128 -0.00205128 2 4 6
0.0529243 -0.0021244 -0.0021244 2 4 6
0.0526954 -0.00219474 -0.00219474 2 4 6
0.0524707 -0.00226241 -0.00226241 2 4 6
0.0522506 -0.00232747 -0.00232747 2 4 6
0.0520352 -0.00238998 -0.00238998 2 4 6
0.051825 -0.00245 -0.00245 2 4 6
0.0516203 -0.00250754 -0.00250754 2 4 6
0.0514219 -0.00256261 -0.00256261 2 4 6
0.0512305 -0.00261518 -0.00261518 2 4 6
0.0510471 -0.00266517 -0.00266517 2 4 6
0.0508734 -0.00271245 -0.00271245 2 4 6
0.050711 -0.00275682 -0.00275682 2 4 6
0.0505626 -0.002798 -0.002798 2 4 6
0.0504312 -0.00283558 -0.00283558 2 4 6
0.0503205 -0.00286909 -0.00286909 2 4 6
0.050234 -0.00289806 -0.00289806 2 4 6
0.0501742 -0.00292217 -0.00292217 2 4 6
0.0501423 -0.00294134 -0.00294134 2 4 6
0.0501389 -0.00295551 -0.00295551 2 4 6
0.0501684 -0.00296407 -0.00296407 2 4 6
0.0502445 -0.00296471 -0.00296471 2 4 6
0.050398 -0.00295175 -0.00295175 2 4 6
0.0506484 -0.00291978 -0.00291978 2 4 6
0.0509339 -0.00287736 -0.00287736 2 4 6
0.0512183 -0.00283202 -0.00283202 2 4 6
0.0515017 -0.00278486 -0.00278486 2 4 6
0.0517849 -0.00273626 -0.00273626 2 4 6
0.0520677 -0.00268649 -0.00268649 2 4 6
0.052349 -0.00263591 -0.00263591 2 4 6
0.0526262 -0.00258515 -0.00258515 2 4 6
0.0528941 -0.00253525 -0.00253525 2 4 6
0.0531505 -0.00248678 -0.00248678 2 4 6
0.0534052 -0.00243799 -0.00243799 2 4 6
0.0536736 -0.00238593 -0.00238593 2 4 6
0.0539593 -0.00232987 -0.00232987 2 4 6
